-18.4048 -4.59685 12.1616
-18.5283 -4.77397 11.809
-18.4361 -4.66584 11.9745
-18.8282 -4.91249 12.1346
-19.0536 -5.10834 12.1267
-19.2865 -5.32249 12.0626
-19.6841 -5.70474 12.1144
-18.3555 -2.62447 14.3301
-20.034 -2.5237 14.7343
-19.8879 -2.33441 14.7537
-21.5008 -4.8583 14.2649
-19.6488 -1.91088 14.6845
-19.567 -1.80201 14.6033
-19.5789 -1.64871 14.4944
-19.683 -1.6976 14.565
-19.5863 -1.46834 14.3628
-19.4675 -1.37032 14.294
-19.5296 -1.33196 14.2621
-19.4449 -1.27977 14.2696
-19.4012 -1.1939 14.2834
-19.4228 -1.02297 14.2891
-19.5431 -0.561773 14.1762
-19.4736 -0.810779 14.1522
-20.3759 -2.85162 14.6545
-19.8687 -5.84042 12.1898
-20.1277 -5.96358 12.3798
-21.2866 -4.48948 14.4177
-21.1068 -4.28082 14.5
-20.9876 -4.09585 14.5294
-20.949 -3.8522 14.5235
-19.5936 -5.62179 11.9591
-19.4283 -5.46844 11.8972
-16.4997 7.77161 15.6882
-16.5043 7.9256 15.5881
-16.6353 7.84477 15.5588
-16.5846 8.01957 15.469
-16.4274 8.2005 15.4467
-16.6208 8.20782 15.3134
-16.4573 8.39763 15.2987
-16.2446 8.566 15.3578
-16.7481 7.07941 15.8621
-16.7172 7.39348 15.7262
-18.1565 5.30764 15.2888
-18.2801 5.25377 15.2878
-19.782 2.04612 15.3721
-19.7831 2.71301 15.2548
-19.7682 2.96384 15.1959
-18.0651 5.46817 15.1767
-18.1094 5.38072 15.2169
-16.9506 6.88432 15.8394
-17.0827 6.65063 15.8567
-17.925 5.55797 15.3563
-18.0413 5.58951 15.2014
-17.9212 5.676 15.3934
-17.8141 5.80889 15.5487
-17.6713 5.8888 15.6995
-17.5429 5.83812 15.8237
-17.528 5.96005 15.8337
-17.4285 6.09334 15.9
-17.1548 6.35701 15.9578
-19.7 3.41045 15.1522
-19.3166 4.5347 14.7817
-19.4823 4.04736 15.193
-19.2657 4.65624 14.66
-19.194 4.78313 14.5746
-19.0027 5.07904 14.4202
-18.9075 5.2081 14.4043
-18.9716 5.17553 14.3196
-18.8613 5.17063 14.566
-18.805 5.12714 14.7794
-18.7458 5.09487 14.9627
-18.6197 5.15249 15.0586
-18.5131 5.15051 15.2265
-18.4422 5.25673 15.0914
-19.6496 3.73433 14.9906
-19.7037 3.54519 15.0108
-20.9472 -6.27353 12.2931
-21.344 -6.3898 12.253
-21.5504 -6.53451 12.1741
-21.4041 -6.47399 12.1515
-21.6171 -6.48587 12.2969
-22.2518 -6.27847 12.2376
-22.4242 -6.26199 12.0241
-22.4998 -5.92544 12.1115
-20.6633 -6.19838 12.3861
-20.3897 -6.09867 12.2708
-19.7042 -1.51189 14.4385
-19.4332 -1.14186 14.2044
-19.5156 -0.621776 14.0459
-20.228 -2.59206 14.673
-19.5747 -0.360716 14.0128
-22.2476 -5.255 12.9715
-20.0781 -5.96507 12.176
-20.2253 -6.0251 12.3425
-22.5142 -5.7444 12.152
-19.7949 -1.99339 14.6939
-19.6395 -0.0950374 14.0983
-19.68 0.0472719 14.319
-21.839 -4.84691 13.8479
-21.7337 -4.93923 13.9939
-21.4426 -4.63441 14.3114
-21.1117 -4.04078 14.4559
-20.8252 -3.57397 14.5485
-20.5525 -3.10238 14.6012
-18.1424 -3.28078 14.8328
-18.2254 -3.15358 14.7513
-18.3152 -2.99207 14.6541
-18.2004 -2.85347 14.4438
-18.3389 -4.6332 11.8373
-18.391 -4.6991 11.6814
-18.5265 -4.84086 11.5985
-18.6673 -4.91499 11.6855
-18.7273 -4.90131 11.8085
-18.9265 -5.02549 11.8803
-19.334 -3.52045 14.7749
-19.189 -3.4023 14.7207
-19.2615 -3.35882 14.7684
-19.1975 -3.22682 14.7444
-20.177 -5.64398 13.8557
-20.4054 -5.7777 13.7994
-20.8397 -5.93849 13.8221
-21.2402 -5.95784 13.7384
-21.3137 -5.86963 13.8406
-21.1042 -5.71484 14.1053
-20.9431 -5.56585 14.2739
-19.51 -5.3031 13.6285
-17.1251 4.6987 16.6463
-17.2621 4.73763 16.6139
-17.3241 4.62001 16.7833
-17.4179 4.77556 16.5602
-20.8293 -5.38641 14.46
-18.8674 -4.04945 13.8916
-18.8615 -3.24781 14.4216
-19.0919 -2.71897 14.757
-18.87 -3.74681 14.1447
-20.6121 -5.19478 14.5933
-20.4397 -5.04263 14.6194
-20.2689 -4.71357 14.7267
-18.8821 -2.62349 15.3507
-19.0436 -2.44376 14.8791
-18.176 -3.60801 16.7194
-18.232 -3.58224 16.6289
-18.3156 -3.47816 16.578
-18.3818 -3.43982 16.2405
-18.4645 -3.31447 16.0951
-18.5438 -3.21562 15.9154
-19.2155 0.7179 16.9741
-16.8745 4.63509 16.6703
-16.7644 4.64112 16.6375
-16.7128 4.66954 16.6362
-16.6866 4.72162 16.6307
-16.5982 4.58048 16.7259
-16.4543 4.59216 16.8004
-16.3007 4.57398 16.903
-16.2028 4.67321 16.9532
-16.0417 4.72616 17.0276
-15.9511 4.93603 16.9937
-15.8243 4.96129 17.0199
-15.826 5.21581 16.9533
-15.9546 5.36865 16.8561
-15.8844 5.47756 16.8871
-15.9231 5.71443 16.8458
-18.1734 4.42603 16.7291
-17.8903 4.49045 16.7834
-18.3221 4.28843 16.7903
-15.8019 5.88426 16.9063
-15.5614 6.62932 16.7714
-15.658 6.43882 16.7282
-15.5638 6.89299 16.6528
-15.4846 7.03487 16.6958
-15.4134 7.30889 16.6668
-15.315 7.51754 16.7182
-15.2624 7.78436 16.6566
-15.1771 7.7866 16.8107
-15.0772 8.24663 16.7223
-15.0985 8.4326 16.6014
-14.9997 8.68888 16.5477
-15.5882 6.17349 16.9247
-19.1917 0.914344 17.0704
-18.1078 -3.37697 17.2728
-18.2415 -3.3483 17.1043
-18.364 -3.29024 16.8314
-18.2438 -3.4923 16.8371
-20.943 -5.7288 14.0874
-21.0551 -5.80671 13.9972
-20.9894 -5.88852 13.8941
-18.4104 -3.3088 16.5177
-18.1788 -3.30775 17.2719
-20.8368 -5.80302 13.9767
-19.1642 1.55316 17.2069
-19.0213 1.37193 17.4081
-19.0854 1.71166 17.3378
-18.964 1.81471 17.5067
-18.9515 2.05333 17.5115
-19.1113 2.05217 17.2934
-17.0859 4.35759 17.1159
-17.2189 4.46435 16.9907
-17.1903 4.306 17.1931
-17.1121 4.54289 16.8649
-16.9127 4.44902 16.9294
-16.825 4.50061 16.8233
-18.5414 3.7072 17.2701
-18.3841 3.77729 17.3442
-18.4766 3.91313 17.0986
-18.9873 0.802915 17.4428
-19.0869 1.21436 17.3046
-19.1432 1.0575 17.1974
-17.328 4.28305 17.2068
-17.3706 4.46158 16.9908
-19.1412 0.644081 17.1421
-19.0775 0.489541 17.2495
-19.0784 0.684221 17.2785
-20.1201 -4.64045 14.7
-19.9414 -4.22344 14.8413
-20.1411 -4.50173 14.7824
-19.6225 -3.87282 14.8492
-17.4531 4.28041 17.188
-17.4258 4.36954 17.0903
-17.471 4.19021 17.3089
-17.5933 4.24234 17.2084
-17.6741 4.10938 17.3719
-17.785 4.21927 17.181
-19.0101 2.27474 17.4144
-18.8834 2.46289 17.5435
-18.8681 2.68429 17.51
-18.9826 2.63055 17.3757
-18.8522 2.84934 17.4849
-18.9952 2.81428 17.3152
-18.7506 2.96327 17.5632
-18.9067 3.00897 17.3629
-18.7838 3.14935 17.4428
-18.6677 3.24142 17.5198
-18.6079 3.37187 17.5068
-18.4673 3.35448 17.652
-18.5024 3.49812 17.5171
-18.3691 3.60919 17.5408
-18.358 3.91318 17.2072
-18.28 3.84156 17.351
-18.243 3.99962 17.1925
-18.063 4.02252 17.2868
-18.1558 4.20499 17.0047
-17.9621 4.19735 17.1274
-20.7183 -5.84432 13.9085
-19.2462 -0.469566 16.2544
-19.213 -0.690732 16.2367
-20.2343 -4.4951 14.7966
-20.0406 -4.13265 14.8682
-19.0805 3.0414 17.105
-19.4785 -3.39028 14.875
-19.3478 -3.31003 14.8212
-19.2246 -2.95737 14.7885
-17.553 4.43549 16.9804
-17.7385 4.38448 16.9735
-18.0216 4.37438 16.8803
-19.2286 1.87719 17.124
-19.1669 2.33897 17.1839
-19.0821 2.66543 17.2382
-19.1478 2.79412 17.1182
-18.9169 3.20231 17.2307
-18.9095 3.37394 17.1141
-18.7761 3.34711 17.322
-18.6726 3.53614 17.2964
-18.7307 3.74659 17.0025
-18.706 3.9481 16.8092
-18.5595 4.02392 16.8864
-18.3841 4.07021 17.0007
-19.0364 -2.31447 14.9557
-19.1932 -3.89435 14.444
-19.3367 -4.61638 14.0458
-18.517 -3.17804 16.2956
-18.4182 -3.34408 16.3153
-19.8126 -5.33543 14.1124
-20.1852 -5.49919 14.1486
-19.1746 -3.07065 14.738
-18.6974 -2.88278 16.0007
-18.6107 -3.0455 16.1584
-19.0431 -2.22184 14.9787
-19.0446 -2.15874 15.0941
-18.9686 -2.36568 15.3584
-18.9776 -2.21995 15.8495
-18.979 -2.13456 16.0199
-19.0938 -1.67949 15.9486
-19.7622 1.56122 15.056
-20.7181 -5.29088 14.5541
-18.5774 -3.12426 16.0272
-18.813 -2.61235 16.0314
-18.8159 -2.67921 15.8068
-18.7625 -2.81713 15.7106
-18.8513 -2.62466 15.5709
-19.0236 -2.3967 14.9327
-18.3604 -3.43144 16.4022
-21.1562 -5.86196 13.9027
-18.1586 -3.46421 17.0486
-19.5017 -3.57632 14.8541
-19.1816 -0.459906 16.473
-19.2563 -0.281268 16.284
-19.249 -3.12571 14.7895
-18.9119 -2.43537 15.7536
-18.889 -2.36471 16.0977
-18.9278 -2.1685 16.278
-18.9474 -1.9955 16.3698
-19.0014 -1.82323 16.3112
-19.0718 -1.64032 16.1256
-19.0164 -1.63343 16.4015
-19.1567 -0.683642 16.4396
-19.7764 -3.99741 14.8677
-18.4827 4.05147 16.937
-18.2784 4.13657 16.9989
-17.8802 4.3336 16.986
-19.2249 -0.170198 16.4153
-20.2791 -4.84808 14.6578
-20.1176 -4.32784 14.8376
-19.9894 -4.17335 14.8692
-14.8062 8.68029 16.7742
-14.9506 8.52846 16.7242
-15.4711 6.78087 16.8147
-15.3666 6.97032 16.8528
-15.2576 7.23989 16.9023
-15.2226 7.55619 16.8375
-15.1203 7.60322 16.9595
-15.0687 7.86931 16.9431
-15.0554 8.12422 16.8292
-14.9713 8.31048 16.8272
-16.9876 4.60906 16.7415
-15.4686 6.5412 16.9141
-15.5403 6.38648 16.909
-15.484 6.22725 16.9963
-15.5706 5.96455 17.029
-15.6857 6.01769 16.9245
-16.6927 4.50688 16.7715
-16.3887 4.44536 16.8734
-16.1828 4.38261 16.9955
-16.1339 4.52354 17.013
-15.947 4.30831 17.134
-15.7491 4.46856 17.1856
-15.8455 4.76084 17.0822
-15.6658 4.72256 17.143
-15.7133 4.9933 17.065
-15.7878 5.37797 16.9819
-15.7898 5.58998 16.9701
-15.6833 5.71534 17.0341
-15.6804 5.90575 16.9852
-18.633 3.99187 16.8469
-18.6088 3.88311 16.994
-19.1182 0.404364 17.1103
-19.2066 0.498923 16.8874
-19.2066 1.37282 17.1315
-19.1211 0.109583 16.9202
-19.1695 -0.0525023 16.6256
-19.0644 2.49908 17.3033
-19.2654 0.3866 16.5679
-19.2346 0.254772 16.5911
-16.528 4.43716 16.8225
-18.806 -2.41194 16.4732
-18.8666 -2.15743 16.6041
-15.1454 7.37634 16.9932
-19.1363 -0.360422 16.6378
-15.6799 5.18044 17.0807
-15.233 6.86094 17.0771
-15.3489 6.62142 17.013
-16.2627 4.27641 16.9816
-15.7103 5.39949 17.0523
-15.6424 5.51473 17.1034
-15.6989 5.83251 16.9927
-15.4365 6.07752 17.1192
-15.4009 6.32917 17.0521
-15.0185 7.6033 17.1004
-16.6838 4.39934 16.8913
-16.4164 4.33169 16.9032
-18.7914 -2.55067 16.2696
-18.9384 -1.89438 16.5497
-19.0066 -1.18251 16.7181
-19.063 -0.319792 16.8604
-19.0352 0.114688 17.2003
-15.5767 4.88905 17.1775
-15.5973 5.8118 17.0598
-15.0624 7.40846 17.1082
-15.5509 4.44494 17.2525
-16.0943 4.22274 17.0699
-15.0703 5.91792 17.5548
-16.6202 4.13819 17.2921
-15.3461 4.81 17.4379
-15.1167 5.5158 17.5517
-16.5769 4.22699 17.109
-16.4002 4.1598 17.1333
-15.9553 3.9298 17.2334
-15.8667 3.89609 17.2547
-15.4335 3.87592 17.4002
-15.3397 3.94336 17.4312
-19.2098 -3.80178 14.5203
-18.7519 -1.972 17.1185
-18.7983 -0.981061 17.3083
-18.8541 -0.766768 17.2732
-18.8493 -0.364345 17.5129
-17.1068 3.95841 17.6777
-18.8341 -0.211856 17.5918
-18.6304 1.12861 17.9506
-18.5241 1.69215 18.0604
-18.3612 2.03163 18.2128
-18.4438 2.3926 18.0657
-18.3652 2.79761 18.0116
-17.8335 3.61552 17.8564
-19.5993 -4.39394 14.5252
-19.8866 -4.85131 14.4223
-19.0299 0.458999 17.3449
-19.9962 -6.07419 7.12899
-19.9078 -5.09111 14.3237
-19.9873 -6.05635 7.22473
-20.0541 -6.10857 7.15637
-20.1471 -6.13535 7.22256
-20.0627 -6.09327 7.27254
-20.1306 -6.13271 7.36179
-18.7131 -5.16531 10.2958
-18.8152 -5.15387 10.2184
-18.6709 -5.09716 10.0887
-18.9523 -5.18666 10.2201
-18.8727 -5.12005 10.1104
-19.047 -5.17969 10.0647
-20.8186 -6.51804 10.3346
-20.9925 -6.53892 10.3368
-20.8645 -6.46542 10.2833
-20.4798 -6.37664 10.3193
-20.5631 -6.46243 10.4638
-20.5894 -6.45307 10.3437
-20.6906 -6.54993 10.4892
-20.707 -6.51867 10.3669
-19.272 -5.29606 10.0653
-19.1514 -5.2543 9.93226
-20.8218 -6.58774 10.472
-20.9786 -6.61908 10.4676
-21.0887 -6.60729 10.449
-21.1674 -6.67405 10.5706
-21.2266 -6.61204 10.4139
-21.4478 -6.73786 10.6262
-21.6559 -6.83934 10.8457
-21.6576 -6.77091 10.658
-21.7917 -6.81643 10.7347
-21.7495 -6.73826 10.555
-21.8519 -6.77647 10.6037
-21.9368 -6.83559 10.7464
-21.919 -6.75277 10.5393
-22.0283 -6.73546 10.544
-22.0753 -6.85958 10.8505
-22.1842 -6.78107 10.739
-22.2135 -6.65757 10.4967
-22.1275 -6.68212 10.5183
-22.3395 -6.65791 10.6355
-22.2901 -6.54482 10.3303
-22.2995 -6.44931 10.099
-22.2028 -6.4919 10.0583
-22.264 -6.94295 7.6557
-22.1669 -6.83907 7.63933
-22.3131 -6.82781 7.75558
-20.4089 -6.33778 10.3838
-20.3189 -6.28338 10.6623
-20.191 -6.18711 10.4214
-20.0808 -6.09585 10.519
-20.3781 -6.33117 10.5152
-20.279 -6.24905 10.3608
-20.5211 -6.43545 10.5516
-19.0558 -5.21084 10.2127
-19.9492 -5.97413 10.2416
-19.8923 -5.94369 10.4295
-21.2988 -6.75498 10.7745
-21.4845 -6.80255 10.8405
-22.1957 -6.88853 11.0169
-22.2894 -6.74956 10.7479
-19.7506 -5.79194 10.2858
-19.6166 -5.62434 10.1518
-19.7243 -5.765 10.0954
-19.6632 -5.69197 9.93716
-19.607 -5.63367 10.0239
-17.7567 -4.96151 10.9242
-17.8535 -4.83552 10.8049
-17.8505 -4.98611 10.6784
-17.9838 -4.84775 10.6474
-17.9788 -4.93511 10.4852
-18.1251 -4.91414 10.5547
-18.176 -4.93166 10.3775
-18.1992 -5.01713 10.2318
-18.0483 -5.01559 10.3333
-18.2753 -4.98061 10.2943
-18.3752 -5.02307 10.2451
-18.5385 -5.07469 10.2331
-18.4736 -5.06761 10.1085
-18.6312 -5.11598 10.2422
-19.8231 3.97934 13.4073
-20.0341 3.76894 13.2429
-19.8633 3.65553 13.3116
-19.9451 4.15886 13.3848
-19.8498 4.50862 13.5012
-20.0258 4.41396 13.3608
-19.8489 4.80443 13.5385
-19.9688 4.86647 13.4522
-19.1571 -5.26682 10.2323
-19.4245 -5.42948 9.96522
-19.2865 -5.33456 9.88817
-19.5349 -5.52768 10.043
-19.5451 -5.55875 9.93529
-20.5294 -0.0510711 13.1567
-20.4676 0.079378 13.1014
-20.6595 0.117575 13.0216
-20.2755 -0.0178566 13.2103
-20.4036 0.307266 12.9598
-20.1769 0.142563 13.1142
-21.9577 -0.834144 12.6919
-21.9068 -1.11367 12.8702
-21.8616 -0.860443 12.7893
-22.0025 -6.97544 7.35979
-21.8713 -6.87297 7.29126
-22.007 -6.83469 7.48247
-22.0904 -6.71394 7.62736
-22.1911 -6.72966 7.71977
-20.1525 -6.12524 10.2301
-19.384 -5.41942 9.83296
-19.4784 -5.49577 9.8603
-19.5835 -5.60966 9.8126
-19.817 -5.84978 9.9805
-22.4096 -6.55849 10.5313
-22.3833 -6.45313 10.2714
-22.161 -7.00252 7.51522
-23.0063 -8.48547 7.07394
-23.0041 -8.31872 7.16029
-23.1532 -8.31854 7.18316
-23.2868 -8.20227 7.33472
-23.2969 -8.36884 7.18419
-23.4015 -8.28595 7.25015
-23.4175 -8.15033 7.38209
-23.344 -8.05822 7.4498
-23.2327 -8.00475 7.48347
-23.3329 -7.92977 7.5369
-23.1513 -8.14116 7.36395
-23.0981 -7.96265 7.4968
-22.9498 -7.86391 7.50142
-23.0462 -7.75689 7.62323
-22.9705 -7.72487 7.5975
-22.901 -7.67685 7.59637
-22.9534 -7.58466 7.66923
-22.7994 -7.71079 7.50647
-22.801 -7.46275 7.68757
-22.6711 -7.33887 7.66942
-22.6815 -7.22201 7.77687
-22.577 -7.19278 7.71314
-22.5691 -7.32175 7.59631
-22.4741 -7.18372 7.64992
-22.9238 -8.39643 7.10391
-18.8286 7.20544 13.9793
-18.6674 7.12421 14.2481
-18.6645 7.38021 14.0179
-18.6449 7.60968 13.8261
-18.8302 7.44094 13.7542
-18.7428 7.76564 13.5443
-18.5058 7.87947 13.755
-18.5494 8.18878 13.3926
-18.4226 8.54723 13.2051
-18.6817 8.5025 12.9045
-18.9136 6.94754 14.0875
-19.105 6.91134 13.8561
-19.1008 6.71407 14.0235
-19.277 6.75316 13.7428
-19.2799 6.54999 13.8976
-19.9172 5.23966 13.5224
-20.078 4.94303 13.3579
-19.748 5.53209 13.6879
-19.894 5.51549 13.5501
-19.7486 5.73343 13.6888
-19.8791 5.72129 13.5479
-19.7126 5.91053 13.693
-19.8346 5.91296 13.5364
-19.6257 6.10699 13.7161
-19.77 6.10523 13.5219
-19.6014 6.26682 13.6518
-19.4174 6.32646 13.8633
-19.4839 6.49672 13.643
-22.8069 -8.45779 7.05602
-22.8628 -8.27986 7.12888
-22.694 -8.30642 7.08221
-22.5877 -8.42919 7.01109
-22.55 -8.28738 7.05545
-17.7651 -4.79341 10.9691
-18.234 -4.99951 10.4951
-18.4594 -5.10789 10.3704
-18.5886 -5.16452 10.3536
-21.8863 -7.0404 7.18952
-21.7367 -6.88983 7.13193
-22.5016 -6.27761 10.2244
-22.5624 -6.37219 10.4934
-22.5975 -6.25753 10.416
-18.3293 -4.99926 10.3141
-18.8749 -5.21529 10.3891
-22.6427 -6.12115 10.3447
-22.585 -6.16448 10.235
-22.6139 -6.03482 10.1514
-22.6822 -5.98412 10.2483
-22.717 -6.04129 10.4563
-22.736 -5.82377 10.2413
-22.5341 -2.56927 12.4423
-22.6383 -2.28964 12.2491
-22.7121 -2.51601 12.1191
-22.5419 -2.24207 12.4132
-22.9634 -4.47694 10.7907
-22.9829 -4.16423 10.6654
-22.9707 -4.39355 10.5343
-22.486 -6.44773 10.4535
-22.4393 -6.38318 10.2325
-22.3354 -7.08992 7.62425
-22.4198 -7.27032 7.53614
-21.8201 -7.17598 7.06516
-21.6657 -7.02222 7.02277
-21.6485 -7.17748 6.94479
-21.4924 -7.08212 6.88098
-21.4878 -7.23993 6.84104
-21.6456 -7.30005 6.91181
-21.5835 -7.37283 6.86447
-21.738 -7.44373 6.94915
-21.6236 -7.51231 6.84878
-21.7821 -7.59714 6.9311
-21.7366 -7.70204 6.8707
-21.9379 -7.72899 6.94814
-21.952 -7.91957 6.92577
-22.1204 -7.85644 7.02282
-22.2389 -8.05358 7.02979
-22.2963 -8.20883 7.0098
-22.1066 -8.1379 6.96404
-22.4213 -8.32311 7.01712
-22.2485 -8.29857 6.95552
-22.846 -2.41598 11.8733
-22.7619 -2.13534 12.02
-20.6342 -0.0658503 13.13
-20.786 -0.00426051 13.0424
-22.8167 -2.7653 11.9483
-22.9373 -2.65581 11.7198
-23.1015 -2.92526 11.4318
-22.9932 -3.19489 11.6553
-23.0157 -2.86703 11.6137
-22.7946 -5.8179 10.4457
-22.8107 -5.54716 10.2188
-22.8269 -5.23918 10.0999
-22.7727 -5.38141 9.98358
-22.7977 -5.15362 9.94808
-22.83 -4.97774 10.0061
-22.7908 -4.93734 9.85068
-22.8631 -5.02416 10.158
-22.8628 -4.78747 10.0645
-22.8918 -4.77648 10.1979
-22.9122 -4.83258 10.3883
-22.9282 -4.49724 10.2331
-22.945 -4.70489 10.521
-22.9497 -4.50671 10.3835
-22.9963 -3.88941 10.7458
-23.0131 -3.94946 10.5547
-22.9965 -3.86981 11.0396
-23.0358 -3.66518 10.8497
-23.0437 -3.60855 11.0161
-23.0868 -3.4555 10.8861
-23.0369 -3.64045 11.1962
-23.1054 -3.38966 11.061
-23.01 -3.65589 11.4125
-23.0758 -3.38519 11.2616
-23.0491 -3.3563 11.4791
-23.006 -2.6656 11.5835
-20.9735 0.0399074 12.9446
-20.8832 -0.173477 13.0815
-21.049 -0.0709051 12.961
-21.0999 -0.227404 12.9987
-21.1681 -0.0548098 12.8934
-21.8931 -1.45887 13.0564
-21.7457 -1.29649 13.1037
-21.5551 -1.284 13.2353
-21.6389 -1.02058 13.0506
-21.3426 -1.48398 13.4807
-21.3835 -1.03929 13.2199
-21.2878 -0.828832 13.1695
-21.3873 -0.793627 13.0911
-22.6733 -2.92936 12.211
-21.1605 -0.769563 13.2037
-21.3003 -0.581697 13.0388
-22.8916 -5.03087 10.2938
-22.0275 -1.31562 12.8651
-22.4269 -8.19057 7.05503
-22.5794 -8.15123 7.1
-22.7359 -8.17703 7.12769
-23.0704 -8.20438 7.24922
-22.0121 -1.59496 13.0151
-22.11 -1.4625 12.8485
-22.0122 -1.82062 13.1
-22.1197 -1.67449 12.9255
-22.0919 -1.96325 13.0352
-21.9434 -2.05022 13.2534
-22.9608 -4.18307 10.9187
-22.9693 -3.91024 11.3155
-22.967 -3.68051 11.5953
-22.9406 -3.54132 11.7166
-22.9031 -3.02617 11.8291
-22.9144 -5.09276 10.652
-22.3179 -2.66562 12.8251
-22.4169 -2.33124 12.6283
-22.2101 -2.46856 12.9873
-22.3116 -2.39061 12.8082
-22.0773 -2.56644 13.1998
-22.1341 -2.25705 13.069
-21.9742 -2.51413 13.3303
-22.0099 -2.2219 13.2264
-23.024 -8.07082 7.36872
-19.8016 2.8218 13.1511
-19.7946 2.98914 13.2275
-19.884 2.87734 13.1177
-19.7452 3.05574 13.4349
-19.7405 3.19979 13.3371
-19.7733 3.32917 13.3036
-19.8668 3.19919 13.2108
-19.8415 3.37712 13.2565
-19.8117 3.50384 13.3053
-19.9029 3.46167 13.248
-19.7412 3.58148 13.3984
-19.7131 3.83001 13.4805
-19.8035 2.64736 13.1026
-19.7453 2.76256 13.2112
-19.7244 3.99641 13.4717
-19.687 4.60548 13.6052
-19.7591 4.30051 13.5072
-19.7559 4.76066 13.5935
-19.6945 5.00521 13.6588
-19.7308 5.23507 13.6729
-19.7319 2.64801 13.1934
-19.537 5.64845 13.8826
-19.6033 5.90395 13.8145
-19.5756 6.03472 13.8135
-19.7062 4.12827 13.5038
-20.9212 -0.412215 13.1673
-21.0178 -0.637396 13.2202
-21.1175 -0.439305 13.0761
-22.6887 -7.48633 7.54698
-22.2809 -7.17038 7.47307
-22.5721 -6.4794 10.7211
-22.6194 -6.34423 10.626
-22.6585 -6.22315 10.5459
-22.8515 -5.55876 10.4728
-22.8645 -5.27958 10.2793
-22.954 -4.71043 10.675
-19.477 6.15658 13.8772
-19.3319 6.22519 14.0313
-19.1437 6.45168 14.1496
-18.895 6.68393 14.3221
-21.7558 -6.79544 7.23787
-21.8503 -6.75494 7.381
-23.0615 -2.63961 11.4785
-23.0017 -2.44875 11.5581
-19.9199 0.669759 12.6012
-20.0106 0.829762 12.4413
-20.0171 0.715803 12.6093
-19.7933 0.783865 12.4307
-19.8951 0.889269 12.3499
-19.803 0.944323 12.2816
-19.9554 0.967774 12.2736
-19.8667 1.08183 12.2229
-19.7966 1.21441 12.2491
-19.7356 1.35149 12.3258
-19.9017 1.32301 12.2757
-19.6227 1.44274 12.3545
-19.7489 1.50556 12.3774
-19.518 1.48472 12.3845
-19.6334 1.56625 12.4201
-19.4181 1.49619 12.4353
-19.5196 1.59738 12.4622
-19.4397 1.59976 12.5497
-19.5398 1.682 12.5449
-19.4993 1.71942 12.6078
-19.4393 1.66467 12.6735
-19.514 1.80899 12.6999
-19.9394 1.1964 12.2116
-23.1526 -7.86553 7.59262
-21.6912 -7.83624 6.79685
-21.8619 -7.93153 6.84984
-21.8928 -8.0215 6.84528
-22.4034 -8.43449 6.92629
-22.7785 -7.23691 7.82074
-22.6506 -7.04229 7.90445
-23.2052 -8.53397 7.02745
-23.4094 -8.45564 7.12638
-23.4986 -8.21821 7.30739
-23.4851 -8.32828 7.20928
-23.4302 -7.98973 7.49724
-23.2477 -7.8381 7.61608
-19.5079 1.82995 12.7676
-19.5387 1.89365 12.7773
-21.4683 -7.56811 6.73844
-20.0169 0.567214 12.7481
-20.1204 0.71982 12.6086
-19.6357 2.02857 12.8167
-19.5823 1.99673 12.8481
-19.5899 2.03602 12.8871
-22.3228 -2.13273 12.7601
-22.2229 -1.97284 12.8659
-22.2369 -1.71644 12.793
-22.2288 -1.43249 12.7032
-22.1498 -1.23731 12.6999
-22.2048 -0.983627 12.5283
-22.2479 -1.1893 12.5741
-22.495 -2.04613 12.4834
-22.0632 -0.985163 12.6599
-21.7867 -1.01533 12.9299
-21.7487 -0.76598 12.8429
-21.5382 -0.716647 12.9622
-21.2432 -0.336794 12.962
-20.2409 0.373013 12.9293
-20.0995 0.297246 12.9991
-20.1668 0.530805 12.7963
-22.6332 -2.02584 12.246
-22.8826 -2.08265 11.7754
-19.5839 2.02826 12.9762
-19.6582 2.14272 12.9116
-19.6152 1.95223 13.1109
-19.6332 2.18478 13.0851
-19.6784 2.31175 13.2482
-19.6805 2.38731 13.1209
-19.7116 2.53953 13.1506
-19.7463 2.48105 13.0528
-19.8873 2.76676 13.0859
-19.9845 2.67525 13.0158
-19.9695 2.82303 13.063
-19.9769 2.98471 13.112
-19.9444 3.33023 13.2059
-20.0396 3.1886 13.1296
-20.0321 3.43846 13.175
-19.5733 1.96703 12.8042
-20.2742 0.751948 12.5961
-22.9338 -2.3317 11.6854
-19.6038 1.93046 12.7182
-21.4569 -7.38489 6.76919
-21.3415 -7.12645 6.75055
-20.035 0.394516 12.8977
-19.8687 0.491571 12.7714
-19.7686 0.59201 12.6114
-19.585 0.917624 12.3121
-19.7069 1.08524 12.2527
-19.6467 1.23222 12.2746
-19.6019 1.33923 12.3097
-19.9356 0.222596 13.0513
-19.5287 1.39023 12.3264
-19.3471 1.39362 12.4047
-19.4312 1.39169 12.3453
-19.3482 1.45434 12.5212
-19.3948 1.53839 12.6289
-19.4444 1.5071 12.7706
-19.4884 1.74827 12.786
-19.5163 1.85321 12.8147
-19.5505 1.93872 12.8715
-19.5629 1.86415 12.9729
-20.0375 0.120979 13.1417
-20.0532 -0.0361207 13.2698
-20.1509 -0.0374727 13.2498
-18.7438 6.87973 14.3609
-18.5185 6.95239 14.5647
-18.4147 7.24224 14.4278
-18.5191 7.35502 14.2121
-18.4635 7.6215 14.0455
-18.3217 7.90652 13.957
-18.2823 8.19655 13.7411
-18.3059 8.44681 13.4556
-19.628 5.75107 13.8032
-19.708 2.58862 13.2379
-19.6955 2.47329 13.237
-19.7113 2.43993 13.3396
-20.6727 -0.379957 13.2784
-20.6944 -0.171186 13.1579
-20.5306 -0.223434 13.2548
-20.393 -0.153159 13.2668
-20.2561 -0.224634 13.361
-20.1169 -0.223229 13.3959
-19.5887 1.71439 13.0856
-19.6429 1.80659 13.275
-19.6622 2.08933 13.2695
-19.7178 2.28259 13.4354
-22.3066 -7.91598 7.07386
-22.9615 -4.11855 10.2618
-22.9951 -4.09531 10.4755
-23.0449 -3.72556 10.5333
-23.0537 -3.64735 10.6715
-23.0872 -3.4763 10.7217
-23.1448 -3.05438 11.2361
-22.8282 -4.65558 9.90015
-22.5574 -7.07566 7.83083
-21.508 -6.94599 6.91954
-22.8906 -4.46592 10.0494
-22.7796 -4.71212 9.75978
-22.7405 -4.87558 9.69447
-22.4426 -7.02907 7.74571
-22.3437 -6.96836 7.70189
-22.369 -6.3304 10.0046
-22.5442 -6.10325 10.0535
-22.6601 -5.86313 10.0514
-22.7296 -5.64113 10.0307
-22.7438 -5.17189 9.79355
-21.5483 -6.88348 11.2981
-21.663 -6.93979 11.2069
-21.4983 -6.85758 11.1485
-21.7901 -6.96381 11.3558
-21.8251 -6.97719 11.1957
-21.9677 -6.9628 11.1412
-21.8556 -6.95555 11.0909
-21.9131 -6.99308 11.2973
-22.0356 -6.97649 11.339
-22.1867 -6.89887 11.3904
-22.1325 -6.94758 11.1945
-22.3647 -6.81161 11.3317
-22.2655 -6.8902 11.1964
-22.3663 -6.80501 11.1036
-21.4463 -6.81555 11.0246
-21.3904 -6.80335 11.0791
-22.4723 -6.72932 11.1894
-22.4619 -6.7226 11.0008
-22.42 -7.55211 7.291
-22.2262 -7.37009 7.23527
-22.3581 -7.3509 7.37147
-22.2911 -7.56808 7.16824
-22.1161 -7.40916 7.14004
-22.1058 -7.56269 7.06177
-21.8951 -7.44106 7.02032
-21.9496 -7.34806 7.08167
-22.3211 -7.76042 7.11582
-22.5318 -6.66194 11.0704
-22.5224 -6.61479 10.892
-21.3073 -6.77095 10.9535
-21.2808 -6.75515 11.1011
-21.1234 -6.71214 10.9563
-20.9162 -6.63127 10.9294
-20.9656 -6.66882 10.7517
-22.1552 -3.36398 13.1761
-22.2251 -3.05949 13.0113
-22.2921 -3.30966 12.9125
-22.0828 -3.17153 13.2508
-22.9066 -4.75655 11.2898
-22.9483 -4.53564 11.0757
-22.9138 -4.87982 11.1125
-22.657 -8.01047 7.16979
-22.5034 -7.77799 7.2129
-22.7266 -7.86603 7.32529
-22.4846 -7.95038 7.11051
-19.3188 -5.39042 10.3697
-19.4023 -5.46012 10.4513
-19.391 -5.42423 10.3121
-19.4824 -5.50124 10.3536
-19.5499 -5.60134 10.5255
-19.5541 -5.60575 10.7054
-19.7016 -5.72637 10.6884
-19.8261 -5.84391 10.7902
-19.8513 -5.87038 10.6855
-20.0071 -5.9757 10.8351
-20.0678 -5.96992 11.0995
-20.2498 -6.18585 10.9944
-20.4186 -6.27894 11.1569
-20.4567 -6.35833 11.0332
-20.6347 -6.46971 11.0516
-20.5045 -6.4085 10.8712
-20.7052 -6.53362 10.9122
-20.8735 -6.58082 11.0957
-22.4332 -3.06788 12.6344
-22.3733 -3.31585 12.7342
-18.268 6.88496 14.873
-18.5182 6.72355 14.7361
-18.9149 6.35864 14.4777
-18.9119 6.47809 14.4287
-19.0357 6.36158 14.3339
-19.7209 2.57726 13.3287
-19.7406 2.71029 13.4296
-19.7213 2.69623 13.288
-19.7432 2.8601 13.3406
-19.7692 2.88069 13.5855
-19.7749 3.11507 13.6213
-19.7632 3.32467 13.7134
-19.737 3.24836 13.511
-19.7217 3.40589 13.5401
-19.7288 3.36385 13.4109
-19.7379 3.46229 13.3784
-19.7451 3.39756 13.3499
-19.1325 6.12449 14.2802
-19.1645 6.25155 14.2141
-19.311 6.06643 14.0954
-18.2235 7.15477 14.6981
-18.149 7.48943 14.5051
-18.1946 7.78355 14.2163
-18.3556 7.48551 14.2898
-17.9541 8.10531 14.2077
-18.1555 8.06525 14.0154
-18.0059 8.32362 13.9393
-17.855 8.57828 13.8473
-18.0828 8.51901 13.6413
-18.7297 6.41868 14.6699
-18.7188 6.5959 14.5976
-18.6877 6.75526 14.5247
-19.7726 3.43075 13.3165
-22.4579 -3.40808 12.5876
-22.7296 -3.54963 12.1089
-22.6067 -3.34261 12.3357
-22.7701 -3.21671 12.0439
-18.9716 -5.27981 10.7175
-19.1115 -5.29486 10.7081
-19.0114 -5.2713 10.5445
-18.8653 -5.27353 10.7319
-18.8668 -5.25838 10.5991
-18.8087 -5.28622 10.8018
-18.7574 -5.27282 10.6928
-18.6977 -5.29245 10.8233
-18.602 -5.25693 10.6828
-18.0803 -4.78708 10.9551
-18.0691 -4.81777 10.8561
-18.1748 -4.93598 10.9681
-18.1626 -4.96067 10.804
-18.2486 -5.06105 10.8786
-18.2718 -5.07622 10.7423
-18.4246 -5.18792 10.6936
-18.3187 -5.1059 10.623
-18.3778 -5.12239 10.5126
-18.5247 -5.18758 10.5203
-22.5406 -3.53251 12.4614
-22.6664 -6.3789 10.8242
-22.7041 -6.21124 10.6878
-22.6575 -6.29937 10.6879
-22.7422 -6.20755 10.8913
-22.7958 -5.96896 10.7973
-22.7701 -6.03346 10.6532
-22.8204 -5.86968 10.8736
-22.8429 -5.71354 10.7136
-22.8698 -5.51294 10.7728
-22.8802 -5.4271 10.6079
-22.872 -5.42654 10.9464
-22.8751 -5.17848 11.0926
-22.9252 -4.89946 10.9003
-22.6983 -6.41581 11.0616
-22.6128 -6.54873 11.0038
-22.8963 -8.0063 7.34476
-22.8199 -8.09299 7.21177
-22.9216 -4.42736 11.3296
-22.9287 -4.17689 11.4251
-22.9511 -4.17598 11.1914
-22.9053 -4.39667 11.5006
-22.9004 -4.26302 11.594
-22.8498 -4.25192 11.7682
-22.9315 -3.96675 11.5647
-22.8128 -4.15335 11.9339
-22.8735 -3.89318 11.7838
-22.7876 -3.98592 11.9943
-22.8199 -3.71504 11.9343
-22.688 -3.91797 12.2077
-22.4598 -7.49006 7.37102
-22.5309 -7.57451 7.36748
-22.5323 -7.45107 7.45285
-19.2622 -5.3521 10.7024
-19.1686 -5.2913 10.5056
-19.3017 -5.3748 10.5081
-19.2325 -5.32364 10.3646
-22.5659 -7.69776 7.3257
-22.6465 -7.64301 7.42194
-19.7623 3.49801 13.3471
-19.719 3.48452 13.4639
-19.704 3.58839 13.6001
-19.6702 4.02969 13.5446
-19.5559 1.12078 12.2686
-19.5026 1.27664 12.2855
-19.6544 4.27331 13.5645
-19.6168 4.43693 13.6148
-19.5922 5.23084 13.762
-19.4771 5.45616 13.9045
-19.4651 6.05499 13.9339
-19.6941 1.96696 13.4603
-19.5292 1.69219 12.9131
-19.5303 1.82383 12.8715
-19.7521 2.86765 13.2272
-19.3573 1.26803 12.3189
-19.6356 4.172 13.5998
-19.7097 3.6958 13.7503
-19.6732 3.81424 13.6598
-19.6601 3.95027 13.6131
-19.0154 6.255 14.3869
-19.631 4.07373 13.6543
-19.5902 4.31405 13.6755
-19.5114 4.49257 13.7635
-19.5496 4.62188 13.6743
-19.5759 4.75268 13.6714
-19.6333 4.85976 13.6633
-19.5376 5.09636 13.7566
-19.4744 5.3083 13.8611
-19.2475 5.5521 14.1078
-19.2933 5.72822 14.1138
-19.3503 5.87819 14.0677
-19.4856 5.8912 13.9344
-18.7028 -5.22877 10.5044
-19.1542 -5.27256 10.3591
-19.0529 -5.24848 10.3472
-21.4288 -6.79931 10.9233
-19.6081 -5.61687 10.3273
-19.7655 -5.7833 10.5048
-19.9576 -5.98149 10.6189
-20.163 -6.15033 10.7501
-20.3471 -6.28625 10.8622
-19.456 -5.46185 10.1759
-18.2925 -5.06768 10.543
-18.306 -5.04922 10.4674
-22.9587 -8.17239 7.23103
-22.8493 -7.87752 7.42316
-22.0642 -7.69933 7.00956
-22.1902 -7.7639 7.06429
-21.5688 -6.855 11.0106
-21.1577 -6.72608 10.824
-18.0647 -4.86869 10.7281
-18.1532 -4.96229 10.6775
-18.2316 -5.02728 10.6069
-20.5333 -6.43034 10.6993
-22.4202 -8.06244 7.07624
-20.7102 -6.56368 10.6782
-21.097 -6.68973 10.683
-20.9508 -6.65052 10.5894
-19.4342 0.992767 12.3104
-19.4723 1.05686 12.2669
-19.4398 1.16652 12.2608
-19.2865 1.17462 12.3922
-19.298 1.31118 12.4478
-19.3113 1.34468 12.5631
-19.3692 1.43262 12.6299
-19.4094 0.893355 12.3538
-19.4665 0.735542 12.4209
-19.3605 1.30004 12.6675
-19.536 1.4561 13.0055
-19.6057 1.47789 13.2538
-19.68 1.60266 13.4773
-19.7277 1.82807 13.6595
-19.6305 0.720903 12.4204
-19.5888 0.555622 12.569
-22.8083 -5.83226 10.6197
-21.1515 -0.949154 13.306
-20.9387 -0.989346 13.4569
-21.0257 -0.832647 13.3162
-20.8126 -1.40874 13.7939
-21.0768 -1.2184 13.5037
-21.0686 -1.49713 13.6641
-19.4319 1.19019 12.8667
-19.7032 0.665816 12.5008
-20.8498 -0.8048 13.413
-19.6971 0.358871 12.805
-19.2978 -5.36135 10.2437
-20.6386 -0.798239 13.5433
-20.7666 -0.609283 13.3528
-20.5393 -0.623725 13.5027
-20.4308 -0.437263 13.4385
-20.3218 -0.334835 13.4119
-20.4137 -0.286823 13.35
-20.2762 -0.492255 13.5485
-20.2 -0.383833 13.4981
-20.0998 -0.430683 13.5633
-20.0033 -0.404257 13.561
-19.9217 -0.22233 13.4258
-19.8095 -0.0980005 13.2934
-19.9326 0.00357554 13.2357
-19.8333 0.0483786 13.1606
-19.7764 0.170523 13.0193
-19.8404 0.336508 12.9298
-21.922 -7.57698 6.98843
-21.7452 -6.92586 11.0551
-21.8555 -6.90789 10.9466
-22.2785 -6.85022 11.0814
-22.3748 -6.75121 10.8817
-22.4389 -6.65116 10.7849
-22.1297 -7.15712 7.32567
-22.0176 -7.23724 7.17233
-21.7796 -7.30336 6.99446
-22.8906 -5.21 10.4455
-19.7687 2.44348 13.6335
-19.7416 2.14522 13.6495
-19.7485 2.52804 13.4548
-21.6061 -1.554 13.333
-21.6872 -1.82501 13.4007
-21.47 -1.82207 13.5496
-21.3099 -1.7575 13.6262
-21.1575 -1.71475 13.7081
-17.9514 -4.73221 10.785
-17.8398 -4.71013 10.8995
-21.7647 -1.59304 13.2237
-21.8697 -1.79077 13.2221
-21.744 -2.16448 13.4755
-21.8804 -2.35266 13.4051
-21.7312 -2.55696 13.5839
-22.8741 -3.38537 11.8733
-22.7972 -2.99764 11.997
-22.0997 -2.85353 13.1949
-21.9782 -2.98161 13.3979
-21.9804 -2.79468 13.3678
-21.8921 -2.80206 13.4791
-21.833 -2.67392 13.5169
-22.0769 -6.92047 11.046
-22.2848 -6.81006 10.9433
-21.9903 -6.91476 10.9566
-20.824 -6.61614 10.5979
-21.0452 -6.66158 10.5777
-18.2755 -4.99343 10.4145
-18.087 -4.87528 10.6428
-18.2881 -4.97995 10.3535
-18.3452 -5.04108 10.378
-22.0791 1.30731 10.8497
-22.1711 1.29376 10.6547
-21.9613 1.35168 11.0118
-21.9297 1.48767 10.7834
-21.7917 1.53554 10.9666
-21.7167 1.45629 11.2256
-21.6036 1.65199 11.0381
-23.059 -0.0513635 10.0361
-23.0716 -0.143887 10.243
-22.9834 0.133532 10.1475
-21.635 6.10735 9.97136
-21.7279 6.07338 9.7846
-21.7148 5.89294 9.99107
-21.6492 6.2692 9.79945
-22.3278 1.13635 10.5785
-22.2097 1.3277 10.4464
-21.5018 6.31117 10.0875
-21.5637 6.44263 9.85229
-10.9357 0.319481 13.481
-11.0492 0.218079 13.2454
-10.9009 0.283278 13.3413
-11.0789 0.294428 13.4706
-11.1928 0.20925 13.2883
-11.3017 0.220092 13.3618
-11.3143 0.14449 13.1664
-11.4422 0.14066 13.215
-11.5835 0.0183491 12.9325
-11.4208 0.0468901 12.9518
-11.7446 -0.0311439 12.7972
-11.7143 -0.113079 12.6664
-11.8458 -0.145649 12.641
-11.878 -0.232697 12.4861
-10.7815 0.307036 13.315
-10.8142 0.34978 13.497
-22.4224 1.05088 10.4264
-22.3093 1.27517 10.2472
-22.5361 0.872992 10.4749
-22.4923 1.00605 10.2218
-22.6136 0.814672 10.2245
-22.6015 0.805848 10.3563
-23.149 -1.13112 9.05962
-23.1008 -0.994118 8.95803
-23.094 -1.21021 8.91725
-23.1772 -1.03925 9.18393
-23.1078 -0.837851 9.0334
-23.1422 -0.744543 9.19641
-23.0548 -0.513863 9.06262
-23.0544 -0.630907 8.97358
-23.2041 -0.698593 9.43258
-23.0973 -0.463711 9.23628
-23.1519 -0.484002 9.46218
-23.2146 -0.609505 9.63365
-23.1959 -0.502596 9.78325
-23.2016 -0.480089 9.95665
-23.155 -0.334055 9.84317
-23.1293 -0.255743 10.0129
-21.3195 1.77347 11.0905
-21.3718 1.84655 10.9148
-21.4608 1.76391 11.0123
-22.9616 0.0911211 10.4091
-22.8574 0.267487 10.5571
-22.8352 0.4135 10.2575
-22.7528 0.483357 10.5002
-22.6388 0.672547 10.5078
-22.6922 0.649142 10.3307
-12.0147 -0.210565 12.5097
-12.0742 -0.343859 12.3573
-23.0286 -1.26935 8.75128
-23.0198 -1.15515 8.73146
-12.195 -0.327758 12.3815
-12.2761 -0.446204 12.2638
-12.2923 -0.294097 12.3852
-12.4763 -0.349784 12.349
-12.3503 -0.395719 12.3211
-21.4427 6.59658 9.9951
-21.4881 6.80449 9.72186
-21.5647 6.58644 9.74666
-21.265 6.86366 10.1785
-21.3213 6.99648 9.90554
-21.2738 7.13524 9.86344
-21.4136 7.03951 9.6445
-21.1536 7.27839 9.97621
-21.314 7.22913 9.66128
-20.9591 7.45525 10.1797
-21.1492 7.45914 9.73162
-20.86 7.70511 9.99492
-21.0452 7.73253 9.49037
-20.8466 7.84659 9.76891
-20.7948 8.01537 9.60877
-21.6744 6.44914 9.63943
-8.26735 1.435 10.9587
-8.5099 1.35971 11.067
-8.50521 1.45383 10.9196
-8.62505 1.27893 11.19
-8.38187 1.28948 11.1385
-8.60452 1.19254 11.2657
-8.71652 1.10858 11.3673
-8.83469 1.19591 11.3281
-8.87623 1.06721 11.4861
-8.84481 0.988413 11.6084
-9.04136 1.01459 11.6423
-8.97685 0.955477 11.7076
-9.1295 0.933595 11.7882
-9.31545 0.944999 11.7972
-9.22837 1.01972 11.6803
-9.30328 0.893665 11.894
-9.44423 0.912777 11.8438
-10.1921 0.633743 13.4046
-10.4083 0.532558 13.3017
-10.2774 0.606567 13.2041
-10.312 0.5878 13.4994
-10.5498 0.447446 13.3958
-10.3591 0.605585 13.7143
-10.6497 0.45625 13.6695
-12.6255 -0.377152 12.4339
-12.6629 -0.416487 12.3183
-12.8077 -0.490029 12.3326
-13.0731 -0.746191 12.4466
-13.1251 -0.724586 12.3024
-12.975 -0.609691 12.3488
-13.207 -0.795396 12.4078
-13.2098 -0.874876 12.4898
-13.3261 -0.916223 12.4192
-13.3477 -1.02076 12.5476
-13.1153 -0.909732 12.6288
-13.4323 -1.1918 12.685
-13.3186 -1.19826 12.823
-13.6285 -1.42245 12.8336
-13.8929 -1.60246 12.7731
-13.6895 -1.37872 12.6825
-14.0103 -1.76182 12.8688
-14.131 -1.80083 12.791
-14.1489 -1.91027 12.8957
-14.3781 -2.04256 12.841
-14.564 -2.15144 12.8068
-14.549 -2.04648 12.7019
-14.7275 -2.26009 12.7891
-14.9245 -2.30894 12.7192
-14.7609 -2.15709 12.6558
-15.0964 -2.46129 12.7406
-15.0545 -2.30843 12.6597
-9.40302 0.86584 11.9621
-23.0048 -1.37996 8.69263
-21.5278 1.81342 10.8293
-20.5599 -5.88727 8.30827
-20.7099 -5.94542 8.45555
-20.7659 -5.9214 8.3467
-20.8339 -6.01563 8.26618
-20.8618 -6.11122 8.1815
-20.9306 -6.2115 8.13905
-20.8764 -6.29098 8.04612
-20.7931 -6.19856 8.05456
-20.811 -6.34974 7.94138
-20.7536 -6.45243 7.81509
-20.6869 -6.36264 7.86056
-20.5483 -6.01951 8.42453
-19.6196 -6.53115 6.55524
-19.7015 -6.41796 6.58177
-20.6649 -6.58863 7.59975
-20.7585 -6.66844 7.53521
-20.6585 -6.6451 7.45683
-20.5944 -6.61805 7.37048
-20.5391 -6.5175 7.53194
-20.4952 -6.57002 7.32103
-20.4174 -6.51844 7.26646
-20.4039 -6.43762 7.3785
-20.3604 -6.44005 7.25266
-20.3272 -6.45955 7.15632
-20.3062 -6.35682 7.16346
-20.2514 -6.24786 7.09521
-20.2713 -6.26105 7.21631
-20.7699 -6.57797 7.70221
-20.6238 -6.44914 7.73147
-20.5206 -6.09588 8.52329
-20.407 -6.15256 8.55464
-20.2993 -6.18507 8.58835
-19.5699 -7.31424 5.55673
-19.5926 -7.4185 5.39944
-19.4661 -7.40329 5.65817
-19.6676 -7.37762 5.26283
-19.6433 -7.46153 5.24067
-19.7402 -7.44572 5.10464
-19.8949 -7.18122 5.13244
-19.8747 -7.25848 4.9374
-20.0462 -7.2505 4.89526
-20.1588 -7.34277 4.90086
-20.0678 -7.34608 4.70283
-20.2291 -7.41511 4.96944
-20.2224 -7.48487 4.86755
-20.3845 -7.61373 4.92095
-20.4271 -7.6696 4.73147
-20.2867 -7.56207 4.6874
-20.5044 -7.75402 4.63627
-20.4002 -7.67163 4.59453
-19.2524 -7.65371 5.74937
-19.3311 -7.64628 5.66994
-19.2767 -7.76637 5.61692
-20.0947 -6.31805 8.79498
-20.2162 -6.26528 8.77681
-20.0529 -6.32021 8.69061
-19.6253 -6.61626 6.47906
-19.5413 -6.64001 6.48847
-19.8012 -6.31186 6.64561
-19.6941 -6.31198 6.68116
-20.18 -6.25999 8.67213
-20.2854 -6.22562 8.65016
-20.2091 -6.19844 7.18053
-23.0319 -1.58053 8.76123
-22.9333 -1.4523 8.54685
-20.1453 -6.15511 7.07175
-20.0074 -6.25363 6.75732
-20.0947 -6.18116 6.89475
-21.1796 4.03956 11.5241
-21.3148 3.98913 11.2773
-21.1876 3.72911 11.4801
-21.2742 4.18127 11.357
-21.3932 4.22539 11.1434
-21.3877 4.3838 11.1784
-21.4611 4.41682 11.0299
-21.4504 4.62634 11.0383
-21.5999 4.49809 10.7839
-21.5635 4.72863 10.8363
-21.693 4.70437 10.6134
-21.5856 4.93377 10.7392
-21.7498 4.92435 10.4455
-21.6534 5.16689 10.5458
-21.8165 5.18894 10.1797
-21.2544 3.3225 11.3285
-21.1702 3.30416 11.5534
-21.1578 3.46888 11.4484
-21.8956 5.40046 9.87144
-21.9307 5.15668 9.89693
-21.9751 5.33407 9.68452
-22.0012 5.53615 9.47069
-22.0275 5.31815 9.52261
-21.9327 5.52199 9.66329
-21.9299 5.71845 9.53728
-21.8826 5.62089 9.75933
-21.7911 5.58614 10.0196
-21.8357 5.87465 9.69897
-21.0776 3.48762 11.6581
-21.2522 1.87197 11.012
-21.3002 1.94452 10.8693
-21.2092 1.95808 10.9948
-21.2452 2.024 10.8842
-21.2603 3.17001 11.4139
-21.3176 3.05083 11.2796
-21.2501 3.03733 11.4437
-19.8954 -6.21179 6.73609
-19.9731 -6.13353 6.8592
-15.1739 -2.27684 12.4758
-15.173 -2.41851 12.5071
-15.1469 -2.34089 12.3875
-15.1544 -2.39265 12.6093
-21.1871 2.08075 10.9473
-21.2656 2.09398 10.8055
-21.1269 2.13183 11.091
-21.2482 2.17723 10.8612
-21.2074 2.2424 11.0057
-21.1196 2.24631 11.1967
-21.2484 2.36066 11.0297
-21.132 2.34491 11.3549
-21.0127 2.37576 11.653
-21.1816 2.53564 11.4607
-21.1478 2.66538 11.5972
-21.2376 2.66527 11.429
-21.1335 2.79046 11.6672
-21.2534 2.7833 11.4413
-21.1893 2.93559 11.5751
-21.2923 2.92786 11.3588
-9.36876 0.836295 12.0517
-9.54155 0.830227 11.9814
-9.49112 0.799847 12.1515
-9.64971 0.785232 12.3203
-9.70118 0.776829 12.1122
-19.6146 -7.59138 5.22125
-19.4838 -7.58657 5.45745
-20.4048 -5.97754 8.34659
-20.3605 -6.08552 8.41802
-19.1437 -7.77483 5.75077
-19.1926 -7.58382 5.89481
-19.2937 -7.21546 6.10601
-19.2399 -7.40066 6.00269
-20.3266 -5.90348 8.26458
-20.3927 -5.82684 8.19151
-20.6937 -5.94432 8.22346
-20.5439 -5.88903 8.16444
-20.7445 -6.05787 8.14092
-20.992 -8.17392 4.35312
-21.1098 -8.28764 4.33373
-20.9486 -8.23624 4.26368
-20.5737 -6.26051 7.84823
-20.6934 -6.25942 7.94106
-20.4697 -6.48011 7.44558
-20.422 -6.38097 7.52154
-20.2976 -6.32717 7.32392
-20.2204 -6.20751 7.29505
-20.5965 -6.10932 7.99654
-20.9324 -8.0997 4.40161
-20.8624 -8.15277 4.34586
-20.8519 -8.04618 4.43197
-20.7515 -8.07987 4.37853
-20.754 -7.97788 4.48507
-20.6558 -7.97149 4.42001
-18.6561 -8.36176 5.60929
-18.8225 -8.24718 5.5936
-18.9794 -8.23377 5.48001
-19.0642 -7.99526 5.62598
-19.1562 -8.11201 5.43936
-19.213 -7.92859 5.55032
-19.279 -8.03605 5.39907
-19.3403 -7.88237 5.44161
-19.3764 -7.70739 5.51781
-19.4931 -7.80077 5.29383
-19.7401 -7.61934 5.01274
-19.8847 -7.52649 4.79688
-20.3538 -7.59858 4.45469
-20.4809 -7.72863 4.4777
-20.5976 -7.85062 4.51192
-20.5862 -7.90868 4.39289
-20.532 -7.83244 4.37167
-18.4871 -8.4681 5.60883
-21.2885 2.27894 10.8674
-21.2963 2.50063 11.1582
-21.3776 2.94631 11.1916
-21.3198 3.17856 11.2272
-21.283 3.51536 11.2424
-21.4421 3.99732 11.0052
-21.6705 4.31203 10.6537
-21.673 1.71284 10.8332
-19.7855 -6.1896 6.73627
-19.6149 -6.41744 6.61745
-19.4477 -6.63086 6.54559
-19.3703 -6.70767 6.51639
-19.3325 -6.80095 6.46018
-19.2692 -6.88775 6.42398
-19.3179 -7.00856 6.22614
-14.981 -2.66164 12.4472
-14.9097 -2.54635 12.2774
-15.0072 -2.48273 12.3317
-18.5102 -8.30872 5.73002
-18.5606 -8.16625 5.82028
-17.0092 -6.29718 9.79527
-16.9895 -6.34439 9.6655
-16.821 -6.37172 9.82211
-17.1466 -6.29104 9.69779
-17.2667 -6.30807 9.58989
-17.4607 -6.30993 9.55072
-17.4447 -6.32709 9.43629
-17.6954 -6.29474 9.27995
-17.4502 -6.33377 9.31485
-15.218 -6.56637 10.9128
-15.185 -6.54258 10.8105
-15.1067 -6.53923 10.9828
-17.7509 -6.29273 9.39657
-17.8986 -6.26211 9.28627
-17.97 -6.25494 9.35857
-18.0928 -6.23759 9.22402
-16.6845 -6.44512 9.77338
-16.6793 -6.4234 9.88217
-18.2505 -6.2366 9.22319
-18.27 -6.25867 9.12858
-18.5478 -6.3288 9.13075
-18.6287 -6.35982 8.989
-18.434 -6.31777 9.05319
-18.7175 -6.37672 9.04148
-18.7987 -6.39171 8.94932
-18.8974 -6.40633 9.00609
-18.9808 -6.40041 8.85036
-19.1406 -6.40668 8.90155
-19.4102 -6.3716 8.827
-19.2461 -6.37635 8.76404
-19.7166 -6.36497 8.74816
-19.474 -6.37506 8.71154
-19.9335 -6.34459 8.72406
-19.8349 -6.34334 8.60081
-18.3767 -6.28648 9.15312
-16.5146 -6.47587 10.0379
-16.2494 -6.55086 10.1869
-16.4118 -6.53789 9.94273
-15.9789 -6.57828 10.3177
-16.2046 -6.57636 10.0713
-9.85101 0.755274 12.2605
-9.82599 0.761939 12.4012
-9.86219 0.765537 12.5181
-9.96932 0.758577 12.4463
-9.93481 0.76313 12.6456
-9.98418 0.762635 12.83
-10.0792 0.746704 12.6684
-9.97458 0.744627 13.0162
-10.1088 0.716983 12.9152
-10.0999 0.691737 13.1453
-10.2387 0.637819 13.0019
-10.374 0.561252 13.014
-22.8341 -1.82458 8.4232
-22.822 -1.57148 8.38041
-22.748 -1.71803 8.22039
-15.1661 -2.19212 12.3347
-15.0816 -2.22218 12.5413
-15.3302 -6.57375 10.741
-15.5225 -6.58694 10.624
-15.4316 -6.58491 10.5701
-15.6959 -6.59211 10.4388
-15.5933 -6.58783 10.3969
-15.809 -6.59089 10.3859
-15.8509 -6.59712 10.2235
-15.7215 -6.58841 10.5567
-20.0327 -6.29828 8.59608
-20.1461 -6.22763 8.55616
-13.9043 -5.46958 12.0223
-13.8784 -5.50538 11.854
-13.869 -5.3225 11.9793
-13.9713 -5.62363 11.9658
-13.9597 -5.66942 11.7618
-14.0548 -5.78457 11.8252
-14.1152 -5.8797 11.6809
-14.0319 -5.78503 11.6987
-14.1748 -5.94462 11.7952
-14.1773 -6.00168 11.6324
-14.25 -6.0585 11.4782
-14.1525 -5.94041 11.5257
-14.3427 -6.17499 11.5015
-14.369 -6.17304 11.3069
-14.4561 -6.26087 11.4181
-14.5066 -6.27375 11.2439
-14.5854 -6.34369 11.3032
-14.6375 -6.32868 11.0797
-14.6689 -6.39809 11.3884
-14.7277 -6.41073 11.1712
-14.0133 -5.09625 12.4274
-14.0013 -5.28164 12.3676
-13.9649 -5.11774 12.3488
-14.8604 -2.88188 12.496
-20.2412 -6.17205 8.47914
-18.7196 -8.11829 5.76624
-18.5642 -8.06213 5.91544
-13.897 -5.34485 12.133
-13.9587 -5.4929 12.1171
-19.3872 -7.5691 5.61964
-13.9653 -5.38191 12.2303
-13.9939 -4.93432 12.3957
-14.0643 -4.96358 12.502
-14.9736 -6.51663 11.1512
-15.0398 -6.51137 10.9108
-14.802 -6.46803 11.2695
-14.663 -3.05815 12.4742
-14.7054 -3.34922 12.622
-14.3351 -3.51363 12.4347
-14.2853 -3.37022 12.3281
-14.2171 -3.56977 12.3576
-14.1643 -3.77254 12.4114
-14.1857 -3.92409 12.4695
-14.1471 -4.08432 12.4821
-14.1544 -4.2631 12.5561
-14.183 -4.43309 12.6045
-14.1602 -4.61613 12.5906
-14.883 -6.46975 11.0386
-13.9331 -5.2182 12.2492
-19.4464 -6.71212 6.44494
-21.5285 -4.54415 7.97946
-21.5209 -4.53962 7.92122
-21.561 -4.59346 7.96832
-21.4595 -4.4653 7.92904
-21.3823 -4.3326 7.90097
-21.4093 -4.41069 7.85692
-21.3339 -4.35619 7.83057
-21.2708 -4.25667 7.82949
-21.3021 -4.30789 7.72871
-21.1795 -4.20787 7.71228
-21.2207 -4.24101 7.60887
-21.1174 -4.09617 7.68025
-21.0707 -4.13072 7.56788
-21.6109 -4.65746 7.99788
-21.5986 -4.57518 7.89917
-21.0249 -4.00969 7.59928
-20.8972 -3.96529 7.41014
-20.9554 -4.04481 7.36701
-20.939 -4.00269 7.29405
-20.8152 -3.91947 7.19945
-20.6757 -3.89158 7.13502
-20.7258 -3.87047 7.04867
-21.6813 -4.74448 8.04583
-21.6125 -4.68697 8.10204
-20.6809 -7.91985 4.50527
-21.0299 -4.08312 7.42383
-21.6406 -4.76834 8.16043
-20.484 -3.83619 6.86582
-20.6115 -3.77038 6.81292
-20.6016 -3.84577 6.94243
-21.6714 -4.8597 8.1519
-21.6935 -4.78949 8.26467
-22.4342 -1.90723 7.83544
-22.5518 -1.8301 7.95497
-22.4385 -1.7657 7.81412
-20.7599 -3.25508 7.47886
-20.9511 -3.15281 7.53187
-20.7542 -3.08158 7.42061
-23.7177 -6.36145 7.46696
-23.646 -6.11804 7.45916
-23.8092 -6.13453 7.29942
-20.4308 -3.79446 6.7418
-20.7859 -3.77797 6.9122
-23.3118 -5.9659 7.68753
-23.3934 -5.81123 7.55659
-23.4833 -6.0642 7.57885
-23.2656 -5.81768 7.64863
-23.1368 -5.79286 7.74547
-23.2318 -5.69546 7.63436
-22.9674 -5.66622 7.84206
-23.0529 -5.50999 7.71946
-22.8358 -5.54303 7.90147
-22.6149 -5.54955 8.06335
-22.7395 -5.33792 7.90371
-22.4089 -5.32008 8.1115
-22.3452 -5.12503 8.05273
-22.5467 -5.17663 7.96282
-22.1592 -5.08659 8.14617
-22.2746 -4.94572 7.98655
-21.998 -5.19469 8.24683
-21.9815 -4.99629 8.1423
-21.8199 -5.12477 8.28764
-21.735 -4.94476 8.25315
-14.7467 -6.42833 11.48
-22.3472 -1.71354 7.70238
-22.4507 -1.61491 7.79712
-14.8736 -6.48506 11.3953
-15.152 -6.54808 11.111
-19.0559 -6.39923 9.03474
-19.2562 -6.38532 8.95208
-19.6176 -6.33769 8.8656
-14.272 -6.0905 11.644
-15.1329 -2.24606 12.2804
-15.0926 -2.30865 12.287
-15.0732 -2.39543 12.3484
-14.8391 -3.11194 12.6113
-14.47 -3.61436 12.5836
-18.1272 -6.23024 9.30633
-15.3722 -6.56602 10.9022
-15.8568 -6.57274 10.6021
-16.0954 -6.53543 10.4484
-16.3052 -6.49989 10.293
-16.7074 -6.39908 9.95409
-14.5392 -6.32004 11.5048
-16.8553 -6.31878 9.94699
-17.2947 -6.27658 9.69525
-17.4059 -6.28952 9.62775
-17.6162 -6.2977 9.50422
-22.3208 -1.86902 7.73213
-22.2201 -1.83916 7.58846
-22.2998 -2.02987 7.81478
-22.1973 -1.99566 7.64281
-22.1348 -2.10111 7.7418
-22.0686 -2.08935 7.62429
-23.9848 -6.31146 7.10195
-23.8978 -6.28239 7.21853
-23.951 -6.04696 7.08447
-24.2878 -8.40415 5.12927
-24.3705 -8.2461 5.11149
-24.2034 -8.50307 5.60715
-24.2242 -8.51087 5.29971
-24.118 -8.65366 5.42911
-21.0381 -8.09574 4.444
-21.1015 -8.19921 4.40912
-21.1727 -8.16764 4.50347
-21.2219 -8.27653 4.45985
-21.3062 -8.24817 4.59004
-24.7285 -7.05599 4.54286
-24.6977 -7.02739 4.76567
-24.7397 -6.82902 4.53933
-21.455 -8.31794 4.66842
-21.3794 -8.36427 4.55748
-21.5274 -8.25264 4.84854
-21.633 -8.35463 4.80237
-21.3902 -8.2161 4.73893
-21.6453 -8.32604 4.94073
-21.7453 -8.40244 5.12211
-21.8022 -8.44164 4.97431
-22.0381 -8.51972 5.10605
-22.1589 -8.57599 5.02716
-21.9875 -8.53475 4.9657
-22.3376 -8.62857 5.11933
-22.3031 -8.63737 5.00453
-22.5126 -8.71697 5.02253
-24.1117 -6.31757 6.91884
-24.0456 -6.12264 6.96942
-24.1804 -6.48063 6.84067
-24.2415 -6.24796 6.66342
-24.2387 -6.49605 6.72484
-24.3134 -6.36946 6.52607
-24.4079 -8.12401 5.28561
-24.423 -8.10791 5.05676
-24.6535 -7.31586 4.94223
-24.6704 -7.15516 5.02601
-24.6338 -7.33122 5.17468
-24.6486 -7.15007 5.24647
-24.6014 -7.15197 5.51367
-24.5443 -7.35502 5.74043
-24.5434 -7.10437 5.79863
-24.503 -6.94672 5.99144
-24.5459 -6.89914 5.80909
-24.4479 -7.05223 6.22374
-24.4527 -6.81112 6.16697
-24.3949 -6.78599 6.36444
-24.447 -6.58083 6.19204
-24.404 -6.59294 6.34663
-24.3594 -6.71885 6.48992
-24.3655 -6.49419 6.42699
-22.6224 -8.75591 5.15124
-22.7992 -8.85323 5.0434
-22.7657 -8.85611 5.2957
-22.922 -8.92597 5.18173
-22.7885 -8.843 5.16325
-22.9837 -8.9856 5.30658
-20.0145 -3.4587 7.0451
-19.9687 -3.35595 6.96467
-19.9776 -3.56783 6.87768
-20.0163 -3.34551 7.06374
-20.0971 -3.36846 7.14897
-20.076 -3.26525 7.11895
-20.232 -3.42433 7.21375
-20.2278 -3.28546 7.23944
-20.3601 -3.36449 7.28199
-20.4799 -3.3021 7.35071
-20.3721 -3.25354 7.30124
-20.5093 -3.15579 7.35798
-20.4328 -3.69739 6.6162
-20.5985 -3.69262 6.65459
-20.6161 -3.25104 7.40239
-21.0033 -3.39261 7.59583
-21.2025 -3.18783 7.60248
-21.3929 -3.06444 7.60689
-21.3514 -2.92205 7.57969
-21.539 -2.87328 7.63025
-21.4503 -2.77574 7.60283
-21.7347 -2.68055 7.6864
-21.5696 -2.63212 7.59479
-21.7328 -2.52009 7.6097
-21.8255 -2.36683 7.59398
-21.6758 -2.42748 7.55117
-21.9383 -2.18611 7.5822
-21.7715 -2.25779 7.53779
-22.0269 -2.17137 7.68037
-19.94 -3.5631 6.64313
-20.0013 -3.68112 6.70855
-20.1145 -3.64574 6.54837
-20.1934 -3.72578 6.6341
-20.3005 -3.68024 6.56002
-23.1262 -9.06851 5.31645
-23.097 -9.03548 5.2008
-23.2125 -9.10302 5.42836
-23.3925 -9.13312 5.43346
-23.5003 -9.13302 5.33288
-23.4123 -9.15225 5.22346
-23.6149 -9.11901 5.33539
-23.5249 -9.14357 5.19461
-23.6981 -9.06534 5.38626
-23.6869 -9.09225 5.22338
-23.7504 -9.03682 5.52731
-23.7885 -9.01196 5.31668
-23.8333 -8.972 5.51785
-23.8911 -8.90999 5.62796
-23.9211 -8.90517 5.378
-24.0228 -8.79117 5.2562
-23.9509 -8.87741 5.21204
-24.0051 -8.80022 5.58409
-23.8402 -6.41729 7.35047
-23.5602 -5.91205 7.45678
-20.4816 -3.61138 6.50288
-20.5278 -3.64508 6.58017
-20.297 -3.74937 6.67399
-20.0768 -3.52691 6.53648
-20.1177 -3.56399 6.51289
-14.2819 -3.76508 12.4969
-14.2474 -4.04718 12.5803
-18.3883 -6.25475 9.23026
-18.7285 -6.35882 9.12138
-19.4292 -6.35281 8.90932
-19.9577 -6.35043 8.81462
-15.0131 -6.52007 11.3327
-14.6298 -6.35966 11.5846
-15.1185 -2.52283 12.4726
-15.0362 -2.82367 12.597
-17.5649 -6.28061 9.61234
-18.066 -6.22497 9.4006
-22.9496 -1.75844 8.62698
-15.5513 -6.58656 10.7489
-15.6613 -6.57757 10.7602
-16.466 -6.46313 10.2299
-17.1844 -6.25552 9.79076
