-29.5371 -13.5856 -13.4416
-29.7847 -13.5299 -13.4576
-30.0001 -13.4774 -13.5417
-28.5538 -13.6744 -13.4794
-29.11 -4.4324 -8.75429
-29.1121 -4.36338 -8.67095
-29.184 -4.23875 -8.74093
-29.1887 -4.136 -8.65113
-29.2531 -4.01659 -8.70862
-29.2883 -3.88964 -8.72795
-29.3632 -3.83516 -8.8679
-29.4304 -3.75218 -9.0067
-29.4964 -3.66204 -9.12805
-29.0786 -4.53376 -8.78148
-29.5121 -3.53041 -9.08884
-29.5251 -3.3805 -9.05673
-29.5475 -3.22876 -9.02282
-29.5976 -3.29449 -9.22304
-14.8722 -5.35066 -7.00954
-14.8877 -5.42207 -7.12858
-14.7698 -5.26719 -7.14159
-14.9299 -5.5049 -7.22686
-14.8374 -5.4117 -7.27164
-14.9802 -5.52415 -7.08931
-15.0698 -5.61381 -7.00974
-15.1989 -5.70216 -6.85282
-15.8276 -6.26528 -6.80192
-29.0416 -4.66459 -8.85049
-28.9903 -4.80419 -8.86887
-17.1113 -7.08286 -6.48886
-17.1696 -7.08332 -6.53301
-17.2064 -7.12946 -6.63647
-17.2681 -7.1286 -6.70737
-17.331 -7.13235 -6.76427
-17.3696 -7.13917 -6.83921
-17.3599 -7.17147 -6.89932
-17.4231 -7.19154 -6.96973
-17.479 -7.21051 -7.03808
-17.5425 -7.19582 -7.06322
-17.6124 -7.19218 -7.11126
-17.6223 -7.22471 -7.16515
-17.6615 -7.20153 -7.18391
-17.0082 -7.07732 -6.41415
-17.6957 -7.22473 -7.25913
-15.8671 -6.2682 -6.65507
-15.7578 -6.2146 -6.78238
-28.9436 -4.91908 -8.91089
-15.3481 -5.83145 -6.84338
-17.0581 -7.07914 -6.45034
-15.4693 -5.96043 -6.77363
-15.4577 -5.9946 -6.95493
-15.4577 -6.03606 -7.06968
-17.747 -7.21888 -7.33282
-17.8147 -7.21536 -7.42156
-15.5232 -6.06058 -6.94704
-15.5964 -6.09656 -6.83223
-15.6733 -6.15132 -6.79859
-28.9092 -5.02572 -8.96471
-17.8689 -7.19674 -7.5136
-16.9589 -7.04165 -6.3853
-16.9285 -7.08335 -6.48862
-15.9033 -6.2549 -6.50492
-22.7142 -14.7457 -9.8752
-22.6596 -14.892 -10.1787
-22.7284 -14.8918 -10.2023
-22.6587 -14.8998 -10.2374
-22.7092 -14.9075 -10.2662
-22.6303 -14.9174 -10.3005
-22.6599 -14.6588 -9.75551
-22.6943 -14.9272 -10.3353
-22.6083 -14.9526 -10.386
-22.5589 -14.519 -9.64353
-22.3134 -13.7242 -9.26098
-22.4044 -13.7807 -9.22148
-22.2731 -13.8103 -9.3366
-22.2405 -13.658 -9.30281
-22.2006 -13.7332 -9.34571
-22.262 -13.5877 -9.27338
-22.1836 -13.5937 -9.34858
-22.2691 -11.5983 -9.47551
-22.3118 -11.5112 -9.45664
-22.4702 -13.8379 -9.16073
-22.5408 -13.8733 -9.13244
-22.4425 -13.9114 -9.2288
-22.5932 -13.8985 -9.08192
-22.5121 -13.9396 -9.17453
-22.6558 -13.9168 -9.04173
-22.5748 -13.9485 -9.12872
-22.6011 -13.9881 -9.13036
-22.634 -14.0499 -9.13691
-22.6695 -14.1111 -9.13784
-22.692 -14.1475 -9.14453
-22.5718 -14.2794 -9.34666
-22.3574 -13.8739 -9.26888
-22.2889 -11.6891 -9.41572
-22.4887 -11.7872 -9.23191
-22.4078 -11.7956 -9.28532
-22.2024 -13.5427 -9.31735
-22.2531 -13.518 -9.25931
-30.6019 -12.86 -13.0847
-30.6216 -12.7259 -12.9673
-30.6476 -12.6656 -12.9439
-16.0118 -6.31929 -6.37961
-16.1208 -6.39129 -6.36113
-16.2397 -6.48923 -6.33546
-16.3616 -6.58147 -6.31617
-16.4725 -6.66736 -6.30735
-16.5485 -6.75707 -6.3332
-16.6103 -6.79608 -6.26743
-16.6625 -6.83025 -6.22294
-16.7008 -6.85168 -6.19064
-16.7494 -6.88993 -6.22242
-16.7916 -6.94983 -6.25681
-16.8496 -6.98738 -6.29971
-16.9036 -7.02792 -6.34104
-22.1706 -13.4851 -9.33022
-24.7947 -15.1982 -12.2429
-22.2209 -13.4432 -9.27243
-22.2836 -13.3939 -9.21294
-22.1671 -13.3656 -9.29943
-22.2246 -13.2929 -9.24556
-22.5364 -11.8601 -9.18544
-22.4657 -11.8833 -9.22301
-22.5365 -11.951 -9.15272
-22.5353 -12.0611 -9.11506
-22.451 -11.9926 -9.19374
-22.6245 -12.1182 -9.03921
-22.5329 -12.1692 -9.08818
-22.6224 -12.2334 -9.01174
-22.513 -12.2606 -9.06052
-22.5994 -12.3293 -8.97953
-22.492 -12.3562 -9.06151
-22.5834 -12.4166 -8.97489
-22.4448 -12.4637 -9.05362
-22.3958 -12.5544 -9.12442
-22.3484 -12.4959 -9.17168
-22.3257 -12.5516 -9.18621
-22.3053 -12.5136 -9.21268
-22.3003 -12.6147 -9.21495
-22.27 -12.5418 -9.24553
-22.2889 -12.7114 -9.22808
-22.2095 -12.6139 -9.28923
-22.2806 -12.8262 -9.21656
-22.1993 -12.745 -9.28488
-22.2758 -12.9278 -9.20375
-22.2084 -12.8658 -9.2769
-22.2956 -13.0053 -9.18087
-22.212 -12.9733 -9.24856
-22.3544 -13.0695 -9.14074
-22.2419 -13.0819 -9.22669
-22.3272 -13.1596 -9.15891
-22.2285 -13.1895 -9.23836
-22.3309 -13.2495 -9.17132
-24.6863 -15.2563 -12.2218
-24.5653 -15.3167 -12.1155
-15.666 -6.22426 -7.20471
-29.5706 -3.88679 -9.51166
-28.8801 -5.28423 -9.28455
-17.7522 -7.34835 -7.49864
-15.4364 -6.0779 -7.40692
-29.182 -4.64792 -9.19389
-29.2275 -4.54716 -9.18906
-29.264 -4.42536 -9.14744
-29.3102 -4.30341 -9.11279
-29.355 -4.17778 -9.12976
-29.417 -4.05626 -9.20735
-29.4959 -3.95869 -9.3432
-29.6381 -3.80961 -9.67022
-14.9733 -5.61271 -7.45502
-29.1632 -4.74726 -9.27607
-18.0445 -7.27791 -7.784
-17.9266 -7.35337 -7.76109
-17.793 -7.39288 -7.59642
-29.1212 -4.86703 -9.32157
-29.0723 -4.98911 -9.33935
-29.0089 -5.09962 -9.34235
-22.5793 -12.4814 -8.94096
-22.4682 -12.5841 -9.04844
-22.3668 -12.6034 -9.16981
-22.3708 -12.6781 -9.1729
-22.3879 -12.7956 -9.16466
-22.3455 -12.9044 -9.16084
-22.3195 -12.9605 -9.16029
-22.355 -13.34 -9.14682
-22.33 -13.4801 -9.20503
-22.3423 -13.5635 -9.19641
-22.3666 -12.9827 -9.12623
-22.6172 -11.9985 -9.08193
-22.764 -14.9328 -10.3738
-22.7699 -14.9407 -10.4585
-22.7506 -14.9425 -10.5301
-22.6937 -14.9637 -10.5983
-22.7896 -13.8423 -8.9144
-22.6851 -13.8381 -8.99031
-22.6157 -13.8403 -9.04943
-22.5724 -11.7786 -9.18265
-22.6034 -11.8825 -9.12496
-22.3408 -13.6428 -9.22227
-22.4333 -13.6946 -9.16811
-22.5284 -13.738 -9.08433
-17.1293 -7.17807 -6.78078
-17.3053 -7.22653 -7.00056
-17.3604 -7.25512 -7.06786
-17.4295 -7.28738 -7.14362
-17.6097 -7.31582 -7.28386
-17.0233 -7.18755 -6.82203
-28.934 -5.19715 -9.33319
-17.0761 -7.18639 -6.7964
-16.9813 -7.1984 -6.87533
-22.5828 -13.7991 -9.06524
-30.4559 -13.1818 -13.4454
-16.2224 -6.53947 -6.76493
-16.5048 -6.80124 -6.741
-16.4324 -6.74173 -6.74945
-16.8265 -7.07718 -6.66643
-29.7921 -7.37648 -10.9877
-29.726 -7.27226 -11.029
-29.6521 -7.20083 -10.9878
-29.3549 -6.90335 -10.9845
-29.3219 -6.85998 -11.0583
-29.3082 -6.80146 -11.1455
-29.2699 -6.74422 -11.1875
-29.2421 -6.69578 -11.2272
-29.2201 -6.64517 -11.2681
-29.4193 -6.94941 -11.0365
-29.4574 -6.98561 -11.0048
-29.035 -6.17385 -10.9466
-28.5579 -5.93511 -10.3831
-28.7048 -5.51951 -9.24085
-28.6641 -5.94493 -10.6143
-28.6263 -5.95025 -10.5436
-28.5992 -5.95538 -10.497
-28.5846 -5.94358 -10.4531
-28.5505 -5.82655 -10.1202
-28.5159 -5.83966 -9.98836
-28.5593 -5.78193 -9.86788
-28.6063 -5.73103 -9.72567
-28.5785 -5.72492 -9.57098
-28.6084 -5.66434 -9.39649
-28.6899 -5.57851 -9.31693
-29.199 -6.57791 -11.3144
-29.1777 -6.47067 -11.3581
-24.0123 -15.5449 -11.8586
-23.6711 -15.5321 -11.6787
-24.0525 -15.522 -11.845
-24.144 -15.4859 -11.8724
-24.5213 -15.3063 -12.0115
-23.5275 -15.4941 -11.6281
-29.2265 -6.35268 -11.4819
-29.2516 -6.26465 -11.4495
-23.3956 -15.4542 -11.5972
-23.4691 -15.4783 -11.6281
-29.1818 -6.51148 -11.3467
-28.7169 -5.92407 -10.6704
-28.7779 -5.92738 -10.732
-28.7954 -5.9429 -10.7554
-30.6151 -9.28995 -11.2784
-30.5661 -9.21569 -11.0509
-30.4679 -9.00803 -10.7516
-30.6436 -9.4003 -11.3565
-30.3402 -8.69513 -10.5524
-30.3125 -8.56328 -10.6142
-30.1713 -8.25221 -10.6251
-30.0908 -8.05701 -10.6988
-30.0439 -7.91589 -10.8021
-30.6906 -9.51482 -11.4261
-30.7167 -9.65302 -11.678
-28.8038 -5.35354 -9.21163
-30.7929 -10.1919 -12.3358
-30.7923 -10.105 -12.0574
-30.7891 -10.0411 -11.8696
-30.7572 -9.92095 -11.8239
-30.7428 -9.7869 -11.7538
-29.9926 -7.78441 -10.9088
-30.8311 -10.7882 -12.4655
-30.8444 -11.5658 -12.7373
-30.8392 -11.38 -12.6915
-30.8403 -11.1622 -12.7073
-30.8332 -10.9224 -12.5605
-30.795 -12.3472 -13.0713
-29.8834 -7.56683 -10.9777
-29.8333 -7.47227 -10.9533
-28.952 -6.12533 -10.81
-28.8965 -6.08504 -10.7948
-28.8489 -6.04675 -10.7732
-30.8342 -11.7197 -12.7692
-30.8294 -12.0878 -13.0065
-30.5465 -13.084 -13.4209
-30.6087 -13.0202 -13.3951
-30.6443 -12.9608 -13.3728
-30.6441 -12.9071 -13.2925
-30.643 -12.876 -13.2451
-30.707 -12.6837 -13.0954
-30.7157 -12.6123 -13.0856
-30.7427 -12.5226 -13.0568
-30.8261 -10.6982 -12.4796
-30.7648 -12.4401 -13.0786
-30.8084 -12.229 -13.0456
-30.8391 -11.9347 -12.9261
-17.536 -7.53985 -7.88767
-17.4835 -7.48556 -7.74353
-15.8111 -6.46264 -8.0001
-17.8655 -7.63236 -8.18731
-18.3732 -7.61176 -8.42134
-16.1402 -6.70272 -7.7928
-17.4147 -7.45038 -7.64707
-17.3499 -7.46412 -7.6764
-17.2872 -7.46384 -7.70547
-17.2382 -7.48756 -7.74654
-16.2293 -6.76908 -7.7178
-16.3366 -6.87418 -7.74636
-16.8488 -7.37634 -7.83974
-16.881 -7.42826 -7.92353
-16.9793 -7.46074 -7.874
-17.0331 -7.49561 -7.88781
-17.0861 -7.51788 -7.88354
-17.1441 -7.51571 -7.86074
-17.1952 -7.50636 -7.80899
-16.0607 -6.62049 -7.79997
-29.0005 -5.70766 -10.9041
-29.0151 -5.47518 -10.1915
-29.1846 -5.26675 -10.2472
-28.979 -5.55672 -10.422
-29.2568 -5.10352 -10.157
-29.313 -5.03202 -10.2032
-29.378 -4.96025 -10.2693
-29.4346 -4.88454 -10.3308
-29.5118 -4.74726 -10.3971
-29.5369 -4.68747 -10.3626
-22.5687 -10.5023 -9.74129
-22.4091 -10.7644 -9.67381
-22.3591 -10.7977 -9.6859
-22.2523 -10.8629 -9.69662
-22.1656 -10.9565 -9.73776
-22.1037 -11.0279 -9.77361
-22.0324 -11.0176 -9.83948
-29.5326 -4.61171 -10.2477
-28.9893 -5.68034 -10.8406
-29.6486 -4.41679 -10.3959
-29.3457 -5.92474 -11.7994
-28.9631 -5.64148 -10.6356
-29.2003 -5.89146 -11.3897
-29.1329 -5.81083 -11.3194
-29.0447 -5.7724 -11.1294
-28.9941 -5.72573 -10.956
-29.3967 -6.00476 -11.9828
-29.7089 -4.32975 -10.5085
-29.7883 -4.24382 -10.7052
-29.8292 -4.18697 -10.7878
-29.8408 -4.0855 -10.6989
-15.1952 -6.11419 -8.6719
-29.4782 -4.81205 -10.3767
-28.9805 -5.66493 -10.7491
-29.3473 -6.31608 -12.0092
-29.4163 -6.13052 -11.9989
-29.5835 -4.51736 -10.2955
-22.7915 -15.4835 -12.458
-23.043 -15.4404 -12.2492
-22.4777 -10.2859 -9.91659
-22.4895 -10.235 -9.96476
-22.548 -10.1652 -9.98449
-22.6128 -10.0826 -10.0083
-22.387 -15.2691 -11.2278
-22.4117 -15.2901 -11.3181
-22.4519 -15.3225 -11.4377
-22.4583 -15.3504 -11.5511
-22.461 -15.3715 -11.6295
-22.3508 -15.2471 -11.1591
-22.5001 -15.4286 -11.9909
-22.4772 -15.433 -12.0749
-22.5261 -15.4602 -12.258
-22.5956 -15.4794 -12.3306
-22.5923 -15.492 -12.4306
-22.6542 -15.5354 -12.5821
-22.5933 -15.514 -12.5271
-22.2444 -15.1797 -11.0182
-30.607 -9.04494 -12.2135
-30.5834 -8.96965 -12.1275
-22.156 -14.8969 -10.3987
-22.1598 -14.934 -10.4887
-22.163 -14.9715 -10.5827
-22.1711 -15.0174 -10.6698
-22.186 -15.0612 -10.7521
-22.2123 -15.0938 -10.8368
-22.09 -14.695 -10.1668
-22.033 -14.4848 -10.0402
-22.1103 -14.6207 -10.0998
-21.9028 -14.1458 -9.88527
-21.7263 -13.6229 -9.80102
-21.6686 -13.5648 -9.86189
-22.8462 -15.5701 -12.6661
-25.3325 -15.1086 -13.3998
-25.2571 -15.159 -13.3162
-22.7075 -15.5578 -12.6276
-21.8609 -14.0365 -9.86674
-21.8212 -13.9267 -9.84842
-21.7801 -13.817 -9.83424
-21.6782 -12.3063 -9.81591
-21.6436 -12.4187 -9.84011
-21.6144 -12.5494 -9.85269
-21.593 -12.6895 -9.8753
-21.5009 -12.9099 -9.99132
-21.4377 -12.7552 -10.0354
-21.4593 -12.9604 -10.0447
-21.4474 -13.046 -10.0467
-21.4428 -13.1261 -10.0613
-21.4752 -13.215 -10.0227
-21.5219 -13.3179 -9.97948
-21.5699 -13.4133 -9.93827
-21.6163 -13.496 -9.90211
-22.0945 -14.7454 -10.2349
-21.7494 -13.7139 -9.82308
-22.0953 -14.7967 -10.2882
-30.7587 -9.8199 -12.988
-28.9516 -13.7412 -14.0524
-27.9965 -13.7114 -14.0227
-30.774 -12.6799 -13.6415
-28.8753 -13.7373 -14.1042
-30.4571 -8.65065 -11.5343
-30.3223 -8.31142 -11.5362
-30.1948 -8.00282 -11.5054
-30.1322 -7.87071 -11.5867
-28.7965 -13.7468 -14.1381
-28.7234 -13.7461 -14.1743
-28.6478 -13.7412 -14.2145
-27.4381 -13.7697 -14.1454
-27.5584 -13.7256 -14.0136
-27.6853 -13.7115 -13.9499
-27.7987 -13.7192 -13.9795
-28.123 -13.7031 -14.0187
-28.222 -13.7058 -14.126
-28.33 -13.721 -14.2078
-28.4473 -13.7343 -14.2481
-28.5572 -13.7388 -14.2462
-30.0729 -7.73818 -11.6366
-30.006 -7.62028 -11.655
-29.9752 -7.54631 -11.7648
-30.8825 -11.9308 -13.4588
-30.8858 -10.9383 -13.316
-30.529 -8.80211 -11.8906
-30.8688 -10.6895 -13.3367
-30.8099 -10.2596 -13.2227
-30.5077 -8.75061 -11.7647
-30.4857 -8.70642 -11.6608
-29.8068 -7.23824 -11.9352
-29.6883 -7.10552 -11.8438
-29.6312 -7.04527 -11.7941
-29.5847 -6.99005 -11.7438
-29.5319 -6.92567 -11.694
-29.4728 -6.86674 -11.6612
-29.8677 -7.316 -11.9368
-30.5439 -8.85704 -12.0247
-25.489 -15.0094 -13.6307
-21.0602 -8.0872 -9.82793
-21.0824 -8.11255 -9.85578
-21.4836 -8.31578 -9.84247
-21.6077 -8.37306 -9.84003
-20.7904 -8.02916 -9.8168
-22.6153 -9.52559 -10.1898
-21.4659 -8.36932 -9.84034
-20.5389 -8.01025 -9.79908
-22.2857 -9.49602 -10.3326
-22.0718 -8.98188 -10.273
-19.9886 -7.78649 -9.51178
-20.0527 -7.78005 -9.54782
-20.1346 -7.86421 -9.64715
-20.2753 -7.88371 -9.66206
-20.4309 -7.90712 -9.67937
-21.4768 -11.7641 -10.0951
-21.6029 -11.9379 -9.9314
-21.5081 -11.4358 -10.1597
-21.5806 -11.2769 -10.1157
-22.6519 -9.57451 -10.1768
-22.6546 -9.71579 -10.1476
-22.6389 -9.87986 -10.1266
-22.6742 -10.0174 -10.0287
-22.6529 -9.63739 -10.1491
-21.517 -11.849 -10.0042
-24.6227 -15.4858 -12.8472
-23.0797 -15.5355 -12.5117
-23.2594 -15.5827 -12.4448
-23.4134 -15.6215 -12.4198
-23.6563 -15.6897 -12.4602
-23.7262 -15.7126 -12.4798
-25.9293 -14.5591 -13.8826
-26.6823 -13.8169 -13.7399
-25.6812 -14.8112 -13.7107
-25.6738 -14.8196 -13.7366
-25.7355 -14.7722 -13.7737
-26.181 -14.3295 -14.0195
-26.4984 -14.0263 -13.9842
-26.551 -13.955 -13.8816
-23.7897 -15.7187 -12.4902
-23.8404 -15.712 -12.4725
-23.8814 -15.6956 -12.4125
-22.3325 -8.65722 -9.92955
-22.277 -8.69659 -9.97958
-22.1585 -8.80076 -10.1047
-22.0627 -8.60149 -9.79911
-22.0826 -8.91845 -10.2096
-22.0481 -9.07081 -10.3384
-21.9621 -9.15806 -10.3768
-21.9469 -9.19247 -10.4039
-21.9763 -9.21649 -10.4141
-22.0014 -9.24758 -10.4302
-25.4681 -15.0233 -13.5385
-23.9371 -15.7012 -12.4469
-24.009 -15.7274 -12.5596
-24.244 -15.6843 -12.7783
-24.4539 -15.5767 -12.7423
-29.307 -6.51969 -11.9814
-29.3106 -6.39452 -11.9918
-22.1408 -8.60296 -9.78152
-23.5643 -15.6192 -12.2873
-19.0422 -2.86933 14.6686
-18.9923 -2.94802 14.5953
-19.1159 -2.83945 14.7264
-19.0111 -2.29303 15.0312
-18.9991 -2.39872 15.0177
-18.9895 -2.3548 15.1229
-16.8777 -3.5223 16.9337
-18.1518 -2.59032 14.0099
-18.0641 -2.61095 14.0176
-18.1421 -2.71365 13.8087
-11.9817 -0.624181 17.2018
-18.2347 -2.88492 13.6575
-18.3104 -3.20968 13.5666
-18.2638 -3.33541 13.3776
-18.1856 -3.42838 13.1419
-18.1743 -3.70296 12.9343
-18.051 -3.60616 12.7926
-18.1023 -3.50563 12.9357
-13.1172 -0.165631 17.9295
-12.9989 -0.154627 17.8632
-11.483 -0.714342 17.3507
-11.7951 -0.746476 17.2902
-13.4105 -0.339318 17.9744
-12.1054 -0.462372 17.144
-12.57 -0.463475 17.6636
-12.8317 -0.267964 17.8687
-12.8453 -0.192732 17.796
-18.2838 -2.62843 14.0111
-11.2425 -0.647341 17.4103
-18.3109 -3.94549 12.9715
-17.7213 -3.80061 16.5403
-17.8355 -3.93125 16.2195
-18.0539 -3.89803 15.7064
-18.1214 -3.82964 15.6558
-18.485 -3.22874 15.1804
-18.4772 -3.12918 15.0197
-18.6901 -2.75701 14.7634
-17.4797 -3.70429 16.6811
-17.2039 -3.63494 16.6461
-18.5964 -4.59625 12.6435
-18.7796 -4.775 12.6374
-18.9813 -4.96847 12.6494
-19.6661 -5.621 12.6801
-19.8772 -5.79655 12.6653
-20.1313 -5.956 12.9067
-18.3786 -2.63501 14.0604
-18.4773 -2.64115 14.15
-17.0267 -3.56951 16.7497
-19.3923 3.67588 15.9876
-19.2471 4.02833 15.9222
-19.1886 4.232 15.7829
-19.0866 4.53998 15.4817
-18.8235 4.76707 15.5662
-19.4217 3.45704 16.1008
-18.4897 4.93575 15.7324
-18.2549 4.97969 15.8892
-17.8566 5.23988 15.6486
-17.8273 5.33236 15.5569
-19.4987 3.27848 16.0461
-15.9976 7.52732 16.0921
-15.5618 8.66578 15.9108
-17.2573 5.44078 16.1016
-19.6404 1.54011 16.0848
-19.6519 2.50821 16.0118
-19.5749 3.01226 15.9982
-20.7426 -6.18817 12.8747
-20.5511 -6.15523 12.8986
-15.6722 -2.74294 17.0131
-15.8761 -2.95821 17.1424
-15.9174 -3.02817 17.3069
-16.3358 -3.37306 17.2713
-10.5134 -0.304721 17.5095
-10.7637 -0.334741 17.5382
-10.8879 -0.404435 17.4718
-14.6127 -1.5625 17.222
-14.9852 -1.9623 16.8987
-13.4672 -0.380631 17.6594
-13.825 -0.512659 17.5208
-14.1556 -0.95675 17.5152
-14.2626 -1.11362 17.5211
-13.4183 -0.364082 17.8035
-14.5062 -1.44338 17.4752
-18.2143 -3.66759 15.3607
-18.6359 -2.67771 14.613
-18.6311 -2.65012 14.5412
-18.5794 -2.62922 14.4241
-17.9395 -3.35384 12.7814
-18.033 -3.43295 12.8141
-17.9347 -3.43378 12.6684
-17.9676 -3.53447 12.6842
-18.0838 -3.7493 12.7561
-17.9724 -3.67775 12.6179
-18.1809 -3.88332 12.7838
-18.2488 -4.04078 12.8185
-18.3678 -4.12594 12.9492
-18.279 -4.19535 12.7461
-17.8675 -3.37076 12.7429
-17.8629 -3.38408 12.6861
-17.846 -3.37661 12.7139
-18.4179 -4.32193 12.8215
-18.361 -4.36459 12.683
-18.5002 -4.48252 12.732
-18.4063 -4.46701 12.5517
-20.835 -6.23848 12.6844
-20.8791 -6.2275 12.8516
-20.9856 -6.26552 12.7311
-18.6577 -4.70527 12.4348
-18.4814 -4.56913 12.4029
-18.8646 -4.89807 12.3781
-19.1046 -5.11466 12.4079
-21.1198 -6.28461 12.7795
-21.1269 -6.29609 12.5749
-21.2689 -6.31211 12.716
-21.2952 -6.32906 12.5521
-22.2664 -5.87239 12.4446
-22.3692 -5.70987 12.3976
-22.3607 -5.82485 12.3278
-22.179 -5.66252 12.8024
-22.2523 -5.72474 12.5846
-22.0795 -5.69251 12.9764
-22.1166 -5.59205 13.0021
-22.0885 -5.49103 13.152
-21.9642 -5.51563 13.376
-22.0554 -5.34604 13.3085
-21.9429 -5.39835 13.5226
-21.8578 -5.32527 13.6941
-21.989 -5.23449 13.5152
-21.7709 -5.22251 13.8574
-21.8936 -5.14118 13.7101
-21.6624 -5.26036 13.9905
-21.5845 -5.28212 14.1179
-21.4718 -5.19726 14.248
-21.3478 -5.19584 14.3574
-21.361 -5.00981 14.3812
-21.1824 -4.91949 14.508
-21.2752 -4.87356 14.4396
-21.2122 -4.73183 14.4952
-22.3006 -5.58656 12.5972
-18.1045 -3.35349 12.9724
-19.3315 -5.33421 12.4048
-22.3071 -6.01711 12.3057
-22.2106 -6.0207 12.424
-19.5391 -5.51637 12.4651
-19.7223 -5.70091 12.384
-5.81962 1.34793 15.7335
-5.87993 1.31572 15.4631
-5.86787 1.35999 15.9348
-6.02023 1.31225 16.004
-6.01659 1.28037 15.7937
-6.16744 1.30848 16.1032
-6.30014 1.29718 16.1389
-6.37719 1.31755 16.228
-6.63321 1.28217 16.1151
-5.75108 1.34953 15.3979
-5.84936 1.30786 15.2639
-6.85461 1.34279 16.1363
-7.03425 1.46996 16.2845
-7.15414 1.48672 16.2908
-7.0739 1.40239 16.131
-7.32286 1.50199 16.2648
-5.47072 1.34617 15.2356
-5.67669 1.30921 15.1409
-5.38038 1.3262 15.106
-7.36447 1.60942 16.3681
-16.2839 7.20537 16.0531
-16.3614 7.36223 15.9592
-16.4252 7.23658 15.9669
-16.1921 7.43777 16.0134
-16.109 7.61208 15.9901
-16.3356 7.57852 15.8794
-5.70112 1.34235 15.2945
-5.37601 1.32373 14.9116
-5.41723 1.35395 14.7258
-5.13477 1.37814 14.8584
-20.0275 -5.91058 12.7388
-20.001 -5.89743 12.5728
-20.1549 -5.97779 12.5987
-20.3322 -6.07302 12.8543
-20.4769 -6.1256 12.6804
-20.6523 -6.19394 12.6345
-18.7013 -4.78714 12.256
-18.5667 -4.68145 12.2668
-14.4416 -1.43344 17.1069
-14.4314 -1.39321 17.2832
-14.3653 -1.2904 17.4543
-4.82319 1.83395 13.759
-5.07577 1.8217 13.8249
-5.03677 1.87932 13.5984
-4.83868 1.79155 13.9558
-4.87757 1.73454 14.1467
-4.96684 1.63196 14.3542
-4.82899 1.59234 14.5313
-5.09053 1.53107 14.5029
-5.19002 1.46357 14.6089
-5.3695 1.47394 14.4982
-5.16358 1.41432 14.7147
-5.34 1.41875 14.6248
-22.2594 -6.14902 12.2989
-22.1315 -6.10229 12.4842
-22.0526 -6.06536 12.6411
-18.3628 -2.59687 14.182
-18.2904 -2.60908 14.1099
-18.2049 -2.59915 14.0803
-18.1238 -2.59591 14.0735
-18.0561 -2.63123 14.0954
-18.0113 -2.63718 13.9303
-17.9598 -2.6453 14.0099
-18.0547 -2.67641 13.8488
-17.9508 -2.68375 13.8454
-18.5592 -2.63578 14.2657
-18.4599 -2.59911 14.2489
-18.505 -2.61066 14.347
-18.0243 -2.75193 13.746
-18.1406 -2.79954 13.6892
-18.1309 -2.89116 13.5715
-18.2284 -3.00768 13.5155
-18.2491 -3.14599 13.4035
-18.1991 -3.20151 13.2647
-18.0573 -3.87978 15.5417
-18.1272 -3.77764 15.448
-18.6026 -2.6265 14.3544
-18.5798 -2.64256 14.4896
-18.4588 -2.66233 14.4526
-18.2903 -3.52159 15.278
-18.3519 -3.35487 15.1578
-18.2287 -3.51284 15.1898
-18.3836 -3.15773 14.9394
-18.3155 -3.26965 15.013
-18.5762 -2.97308 14.8886
-18.4226 -3.04581 14.8233
-18.5618 -2.84563 14.7575
-18.6334 -2.72625 14.6963
-18.5477 -2.73847 14.6324
-18.5537 -2.67696 14.5454
-17.984 -3.97125 15.7876
-17.9105 -4.01008 15.8877
-14.5467 -1.54422 17.0394
-14.5636 -1.56637 16.8708
-14.8286 -1.80054 16.7283
-14.694 -1.67603 16.8289
-15.0165 -1.95367 16.6729
-14.9481 -1.89038 16.4994
-17.7383 -3.88211 16.3175
-17.6115 -3.80954 16.4416
-17.7594 -3.95579 16.1134
-17.8272 -4.00068 16.0017
-16.4459 -3.39862 17.0947
-16.3185 -3.33432 17.1332
-18.0059 -3.29131 12.9143
-21.4204 -6.34223 12.6027
-21.368 -6.36096 12.4151
-21.5906 -6.35705 12.632
-21.7181 -6.28379 12.8296
-21.718 -6.32451 12.693
-21.7696 -6.23486 12.8455
-21.7776 -6.27332 12.7266
-21.8374 -6.22618 12.7559
-21.8869 -6.1549 12.8324
-21.9625 -6.08103 12.7774
-21.9333 -6.22103 12.6547
-22.0329 -6.16804 12.5587
-17.4818 -3.78375 16.4324
-17.3586 -3.71101 16.5431
-17.089 -3.63157 16.5334
-17.2341 -3.71241 16.3709
-15.1714 -2.11935 16.7271
-15.2788 -2.25683 16.8731
-15.5072 -2.53398 16.8433
-15.3886 -2.33462 16.6359
-15.6472 -2.67869 16.863
-15.7858 -2.82717 16.9542
-15.9108 -2.92325 16.9777
-16.019 -3.01613 16.9728
-16.0156 -3.09016 17.1895
-16.1699 -3.20836 17.2371
-17.9582 -3.97223 15.6011
-16.5703 -3.45116 17.1006
-16.7217 -3.48933 16.9056
-16.86 -3.52025 16.7594
-16.2353 6.83849 16.2311
-8.7416 1.01258 16.5692
-8.90964 0.832313 16.7702
-8.99207 0.75809 16.8983
-9.42906 0.418821 17.0365
-9.94188 0.00243537 17.2379
-19.357 3.90963 15.8152
-19.4854 3.575 15.8067
-8.05963 1.55534 16.0364
-19.2531 4.60367 14.8639
-19.1525 4.7247 14.8976
-19.2158 4.69888 14.7402
-19.0712 4.73576 15.1233
-19.0148 4.87218 14.9238
-18.9337 5.02869 14.7091
-19.0722 4.91188 14.6374
-18.8688 4.97584 15.0075
-16.5216 6.52777 16.254
-16.4326 6.80063 16.1586
-16.7437 6.74488 16.027
-16.3131 6.98497 16.127
-16.4997 7.05169 16.0003
-19.3133 4.44199 15.0104
-19.2276 4.53242 15.1067
-15.9439 7.7283 16.0516
-15.9341 7.93296 15.9881
-15.7887 8.30251 15.9012
-15.9418 8.13371 15.8824
-15.7684 8.51335 15.7989
-19.2791 4.37197 15.2891
-19.3897 4.22321 15.1917
-19.3078 4.16865 15.5781
-19.4349 3.97727 15.4851
-19.6709 0.635492 14.851
-19.6872 1.11082 15.2785
-19.6981 1.30331 15.5079
-19.7447 1.93025 15.6793
-19.7154 2.16429 15.7887
-19.7588 2.21224 15.5159
-19.7245 2.35682 15.6436
-19.7305 2.52823 15.5627
-19.7728 2.4801 15.3792
-19.7559 2.61693 15.4136
-19.7313 2.72768 15.4896
-19.6705 2.76381 15.7801
-19.7119 2.94108 15.4857
-19.6635 3.02197 15.6654
-19.6318 3.23353 15.6218
-19.7107 3.21042 15.3043
-19.6431 3.49058 15.3239
-19.5688 3.4 15.7059
-19.559 3.60332 15.5323
-19.5066 3.77123 15.5288
-19.5797 3.74795 15.2865
-19.5172 3.90231 15.3086
-19.1916 4.39909 15.4967
-19.1468 4.58459 15.2529
-16.5639 6.13402 16.3502
-16.6904 6.26483 16.2394
-7.44141 1.67566 16.3042
-7.55695 1.66183 16.2013
-7.83561 1.6518 16.0256
-7.90802 1.6176 16.0048
-7.99283 1.59174 15.9935
-16.653 6.09719 16.3235
-16.6314 5.78824 16.4688
-16.8991 5.65233 16.3586
-19.0467 4.66077 15.3294
-18.8519 4.85015 15.3324
-18.7302 4.89542 15.4618
-18.6061 4.91166 15.6164
-18.362 5.03467 15.6879
-18.208 5.07489 15.7523
-18.0896 5.14419 15.6918
-17.8009 5.43336 15.5288
-17.7046 5.48533 15.6477
-17.5899 5.56161 15.7839
-16.0899 7.75804 15.9414
-19.4007 -1.71998 14.4925
-19.3693 -1.39662 14.3996
-19.5354 -0.654454 14.7049
-19.5893 -0.157685 14.8842
-19.5997 0.209746 15.0929
-20.716 -4.22648 14.6968
-20.8712 -4.48225 14.6504
-19.6476 -2.4603 14.85
-19.549 -2.38644 14.8368
-10.1112 -0.116662 17.384
-10.4016 -0.254161 17.4799
-20.451 -3.73389 14.7522
-20.0393 -3.04816 14.8315
-19.8864 -2.95988 14.8684
-19.7201 -2.64757 14.852
-19.4877 -2.29554 14.824
-21.039 -4.73538 14.5921
-19.6368 0.818893 15.3685
-19.8392 -2.77411 14.8555
-19.4692 -1.97397 14.6783
-19.4605 -1.79696 14.5515
-19.4348 -1.55116 14.3935
-19.4208 -1.38606 14.3354
-19.4284 -1.06611 14.5215
-19.508 -0.788406 14.5603
-19.586 -0.483717 14.4726
-19.5992 -0.334599 14.6622
-19.4046 -2.13125 14.7555
-19.3789 -1.29881 14.3495
-19.6287 0.547406 15.1729
-19.6598 1.10848 15.4955
-19.664 1.24211 15.689
-20.6825 -3.94159 14.6802
-20.365 -3.43238 14.7592
-20.2031 -3.16226 14.7858
-19.6522 1.34095 15.8977
-19.688 2.01506 15.9726
-19.6874 2.33677 15.8751
-19.613 2.70303 16.067
-19.6138 2.90189 15.9331
-19.5716 3.17978 15.8895
-19.5338 -2.14325 14.7773
-19.5543 -2.27183 14.8166
-19.6893 0.442094 14.5901
-19.6517 0.24638 14.796
-16.169 7.91408 15.8197
-16.1097 8.15008 15.7227
-5.88291 1.93513 17.4221
-5.86304 1.95248 17.4998
-6.01238 1.95341 17.5162
-6.08227 1.97457 17.6514
-6.22856 1.92721 17.6243
-6.4475 1.89578 17.6621
-6.3564 1.8548 17.4939
-6.63638 1.89877 17.7454
-6.56157 1.84055 17.5115
-4.9148 1.93614 16.9632
-4.96759 1.91001 17.0511
-5.08253 1.92278 17.01
-6.85914 1.89245 17.7784
-6.7666 1.83334 17.5787
-7.16709 1.95572 17.8827
-7.21231 1.91178 17.7026
-7.06433 1.89867 17.7262
-5.7743 1.94693 17.3963
-7.26713 1.92746 17.7997
-7.31903 1.898 17.6812
-7.37614 1.78371 17.8773
-7.44003 1.7135 17.7598
-7.38773 1.8235 17.698
-7.4125 1.67459 17.9712
-7.49203 1.59307 17.8829
-7.57879 1.52823 17.8205
-7.53249 1.61833 17.6385
-7.66259 1.49512 17.7072
-7.80508 1.42098 17.6297
-7.66025 1.56616 17.4622
-8.0008 1.32421 17.5634
-7.80845 1.48668 17.3534
-7.94488 1.42562 17.3129
-7.34155 1.89112 17.8209
-5.66628 1.93253 17.3932
-5.69252 1.93286 17.3071
-5.5994 1.91649 17.3874
-5.6074 1.92314 17.3277
-5.63079 1.86963 17.4937
-5.52793 1.89436 17.3669
-16.2907 -3.23622 18.5505
-16.283 -3.16666 18.6632
-16.446 -3.23293 18.6311
-16.6047 -3.20747 18.7403
-16.6615 -3.33339 18.5908
-16.901 -3.36974 18.6227
-16.8186 -3.43429 18.493
-16.9898 -3.43048 18.5365
-16.9845 -3.46944 18.4102
-17.1386 -3.42603 18.5007
-17.178 -3.46139 18.315
-17.3026 -3.38886 18.4418
-17.3605 -3.41738 18.2681
-17.4342 -3.36983 18.3646
-17.5109 -3.38642 18.2012
-17.5612 -3.32807 18.3411
-17.6611 -3.34377 18.1285
-15.6142 -2.79436 18.8384
-15.5374 -2.8248 18.6472
-15.4902 -2.71219 18.8143
-8.28574 0.697738 18.8443
-8.42329 0.652501 18.7315
-8.2649 0.811135 18.4351
-8.08806 1.00063 18.2754
-8.20713 1.01754 18.0401
-8.08066 1.17991 17.8403
-8.20667 1.1532 17.6897
-4.94426 1.85387 17.1356
-5.08157 1.89024 17.137
-5.09852 1.79851 17.2926
-5.27419 1.80183 17.405
-5.3183 1.90176 17.2229
-5.22536 1.71701 17.5429
-5.4773 1.75281 17.5853
-5.7072 1.76408 17.7007
-8.07308 1.37826 17.3258
-16.1229 -3.12248 18.6334
-8.15194 1.2786 17.4795
-6.94837 1.83518 17.5839
-7.93515 1.26286 17.8489
-8.05091 1.13302 18.0388
-7.66974 1.45306 17.9003
-8.4381 0.567808 19.0746
-8.74074 0.484379 18.8813
-8.58888 0.544975 18.9279
-8.91178 0.477488 18.6925
-8.81614 0.470841 18.8185
-9.09153 0.428057 18.6327
-9.20206 0.409508 18.5788
-9.08062 0.515777 18.4584
-9.31958 0.314225 18.7044
-9.30988 0.424777 18.448
-9.52159 0.262103 18.6053
-4.90944 1.90482 16.8537
-4.78507 1.93678 16.9044
-4.74006 1.91042 16.8168
-4.58586 1.89951 16.7672
-4.74216 1.82496 16.751
-3.25379 1.55036 16.046
-3.53733 1.52222 15.9603
-3.51123 1.54103 15.6991
-3.15253 1.65624 16.7714
-3.46454 1.61866 16.5895
-3.25749 1.59877 16.5823
-3.48656 1.65366 16.6697
-3.68409 1.63464 16.5594
-3.86059 1.66198 16.576
-3.98027 1.60123 16.473
-4.01449 1.71054 16.622
-4.17251 1.6445 16.5222
-4.13269 1.75331 16.6868
-4.32124 1.70386 16.6042
-4.31045 1.76366 16.6768
-4.40834 1.83887 16.7143
-4.47518 1.75321 16.6636
-4.57167 1.80869 16.7103
-4.63683 1.75328 16.6885
-19.857 -4.73656 14.4849
-19.9186 -4.69243 14.5766
-19.9962 -4.93122 14.4648
-19.8302 -4.61982 14.5563
-19.7649 -4.47691 14.6196
-19.3306 -3.96101 14.5725
-19.3869 -3.84349 14.7043
-19.5409 -4.17833 14.6664
-3.3007 1.68004 16.7704
-9.67509 0.148888 18.8116
-9.69585 0.163013 18.6375
-15.9214 -2.99936 18.6772
-16.0109 -3.12108 18.5364
-15.7698 -2.87602 18.8177
-15.7518 -2.9591 18.6282
-15.6514 -2.87644 18.7049
-11.5683 -1.09538 18.8887
-11.4972 -1.0675 18.685
-11.4638 -1.00008 18.7996
-11.6772 -1.19265 18.8857
-11.8429 -1.31264 18.9318
-11.663 -1.19403 18.6923
-11.8162 -1.2864 18.7037
-11.9748 -1.39674 18.8856
-11.9293 -1.37538 18.6887
-10.6642 -0.262103 18.7666
-10.7059 -0.35466 19.078
-10.8199 -0.381904 18.8512
-8.54118 0.633853 18.6787
-11.3228 -0.90957 18.6266
-11.3776 -0.896986 18.7894
-14.3988 -0.372805 18.757
-14.4919 -0.368786 18.9567
-14.4883 -0.427588 18.8051
-18.2254 -3.20222 17.4601
-18.2375 -3.25423 17.2936
-18.1386 -3.27136 17.4451
-18.2844 -3.15128 17.3365
-18.3225 -3.18818 17.1341
-18.3697 -3.01387 17.2655
-18.4319 -3.05293 16.9559
-18.5038 -2.85012 17.0479
-18.5506 -2.89117 16.8015
-18.6299 -2.82247 16.5513
-18.5064 -3.07822 16.6185
-18.6181 -2.96316 16.3188
-18.7243 -2.63035 16.475
-18.7197 -2.74444 16.2754
-14.6482 -0.553276 18.9796
-14.6405 -0.636094 18.7896
-14.548 -0.514089 18.751
-11.2776 -0.825919 18.6752
-11.2109 -0.742491 18.6559
-11.2831 -0.809566 18.7516
-11.2319 -0.71084 18.7388
-8.77747 0.509265 18.7534
-9.63198 0.238854 18.4575
-9.83984 0.0895817 18.7808
-9.79827 0.127438 18.558
-9.98475 0.0128347 18.6777
-10.1309 -0.0968634 18.8635
-10.1408 -0.0884212 18.6377
-10.2728 -0.151971 18.7874
-10.236 -0.154084 18.9956
-10.3643 -0.170367 19.0043
-10.5345 -0.205386 19.0887
-10.4621 -0.159942 18.7227
-12.1898 -1.52943 18.8323
-12.1473 -1.48486 18.6614
-12.0386 -1.44232 18.6751
-10.9119 -0.487044 19.0926
-10.945 -0.468188 18.8747
-11.0864 -0.545105 18.988
-11.0466 -0.500813 18.7716
-11.213 -0.627751 18.9124
-11.1516 -0.604675 18.7444
-11.2689 -0.71452 18.8612
-19.3517 -3.67698 14.7511
-19.2639 -3.59784 14.6879
-19.2295 -3.7155 14.5904
-19.459 -4.28974 14.4526
-19.3558 -4.27331 14.3222
-19.3334 -4.10755 14.4497
-14.6308 -0.690849 18.6778
-14.5891 -0.600158 18.6069
-14.69 -0.765016 18.7746
-14.6497 -0.763643 18.6727
-14.7348 -0.745735 18.9675
-14.859 -0.943811 19.0494
-14.7845 -0.928883 18.86
-14.9553 -1.10009 19.1217
-14.908 -1.16997 18.9558
-15.0249 -1.31685 19.1346
-15.1365 -1.62915 19.1685
-15.0032 -1.47931 18.9785
-17.6833 -3.28023 18.2769
-17.8075 -3.26299 18.0743
-15.2258 -1.9075 19.1278
-15.1033 -1.78084 18.9912
-15.3544 -2.26147 19.0123
-15.299 -2.23549 18.8635
-15.2444 -2.05206 18.998
-15.3804 -2.45673 18.8013
-15.3094 -2.33562 18.7243
-15.3358 -2.53323 18.5914
-15.4566 -2.55647 18.9073
-15.4068 -2.61089 18.7653
-17.9332 -3.28468 17.777
-17.7812 -3.36 17.8613
-18.0486 -3.25489 17.6358
-18.0169 -3.32556 17.5243
-14.5497 -0.45875 18.93
-19.5935 -4.81005 14.1904
-19.4335 -4.78544 14.0564
-19.4635 -4.67086 14.1405
-19.5218 -4.4838 14.3715
-19.5328 -4.63305 14.2451
-19.3778 -4.48408 14.1881
-19.5274 -4.97705 14.0626
-19.6365 -5.13888 14.1147
-19.5324 -5.1311 14.0054
-19.7263 -5.01167 14.2174
-19.7996 -5.21537 14.1948
-19.9819 -5.26399 14.3024
-19.92 -5.33635 14.2047
-20.1374 -5.29406 14.3623
-20.1061 -5.40986 14.238
-20.3305 -5.38514 14.3781
-20.3308 -5.52763 14.1855
-20.51 -5.52063 14.2689
-20.5352 -5.63427 14.1248
-20.6585 -5.59851 14.1811
-20.6464 -5.51635 14.2862
-20.5575 -5.43358 14.3859
-20.2088 -5.22688 14.4615
-20.3504 -5.24307 14.5117
-20.1405 -5.09046 14.4838
-20.2523 -5.1182 14.5324
-20.0656 -5.15395 14.4004
-19.4537 -4.18758 14.5462
-9.99031 -0.0152028 18.9621
-15.0996 6.50778 17.3872
-15.1148 6.74048 17.2772
-15.2119 6.55849 17.2129
-15.0323 6.66661 17.415
-15.0323 6.83221 17.3556
-14.9949 6.92965 17.3721
-15.0826 7.08553 17.2033
-14.9151 7.03963 17.4149
-14.9155 7.36505 17.2898
-14.7939 7.19252 17.5032
-14.6586 7.48791 17.5294
-14.7009 7.8369 17.3487
-14.8779 7.752 17.1998
-14.6234 8.09368 17.32
-14.7893 8.00362 17.1808
-15.2851 6.38584 17.1734
-15.1708 6.3233 17.3243
-14.6246 8.35641 17.1645
-14.7985 8.2547 17.0625
-14.4839 8.51404 17.2242
-14.4402 8.27696 17.388
-14.2731 8.43628 17.4503
-14.0981 8.36813 17.6468
-14.0796 8.55065 17.5311
-13.9029 8.4198 17.7854
-13.8685 8.63767 17.6543
-19.7509 -4.30334 14.7389
-14.5348 8.71209 17.0278
-14.297 8.68647 17.254
-14.048 8.77438 17.3906
-14.6698 8.55729 16.9984
-15.2839 6.17655 17.2505
-15.1208 6.10806 17.4282
-15.2496 5.91316 17.3607
-15.0598 5.68859 17.5565
-15.2755 5.63149 17.3821
-18.877 0.049429 17.5573
-19.0021 0.261584 17.3406
-18.9278 -0.0907642 17.3918
-18.9468 0.403554 17.4861
-18.7801 0.107487 17.7582
-18.717 0.30119 17.8834
-18.8519 0.464778 17.6549
-18.8171 0.724044 17.7105
-18.8725 1.13014 17.6362
-18.9619 1.05365 17.4923
-18.7671 1.2681 17.7708
-18.9291 1.49365 17.5504
-18.6591 1.39162 17.9093
-18.8066 1.59672 17.7108
-18.6618 1.6663 17.8912
-18.8099 1.88092 17.6987
-18.6261 1.89877 17.9215
-18.5479 2.09247 18.0003
-18.7945 2.16071 17.7045
-18.4427 2.21218 18.0947
-18.6471 2.35934 17.8494
-18.605 2.54883 17.8462
-18.7483 2.56846 17.6823
-18.6996 2.74242 17.6833
-18.4654 2.63759 17.9732
-18.571 2.88723 17.7807
-15.5038 5.62813 17.1866
-15.3839 5.47557 17.3571
-15.4389 5.83285 17.1858
-3.16329 1.67874 15.5244
-3.17824 1.64411 15.6593
-3.29396 1.62749 15.412
-18.3453 3.12598 17.892
-18.5123 3.21755 17.6849
-18.4512 3.01526 17.8467
-3.16201 1.58691 15.8869
-3.33891 1.59631 15.6128
-3.71489 1.49699 15.7748
-14.932 8.05844 17.0012
-20.6948 -5.7216 14.0517
-20.792 -5.67374 14.1271
-20.7425 -5.56546 14.2295
-20.8394 -5.60318 14.2151
-20.7459 -5.48797 14.3438
-14.7297 8.41346 17.0218
-14.8271 8.46611 16.8955
-20.4719 -5.32887 14.477
-20.6331 -5.34068 14.497
-20.3624 -5.1273 14.5708
-20.1593 -4.9931 14.5377
-20.2716 -4.99493 14.5936
-20.1066 -4.80933 14.6006
-19.9389 -4.55441 14.6722
-19.9422 -4.40102 14.7686
-19.7592 -4.14298 14.8217
-20.4814 -5.21589 14.5532
-5.81713 1.90575 17.3244
-3.3095 1.53267 16.2082
-3.69658 1.55279 16.3541
-3.77659 1.59376 16.4524
-4.60523 1.70358 16.6212
-4.78736 1.73094 16.6962
-19.0006 -0.106363 17.1896
-18.9174 -0.399857 17.3012
-19.011 -0.25959 17.0801
-18.9625 -0.557115 17.072
-4.92216 1.79059 17.2259
-5.64841 1.67525 17.7949
-5.74715 1.86741 17.591
-5.74501 1.92142 17.4886
-4.81363 1.90257 17.0243
-5.95556 1.96126 17.6054
-4.66381 1.9408 16.8522
-10.3781 -0.192399 19.2459
-3.61562 1.69365 16.6589
-4.22336 1.82711 16.7141
-18.1251 3.20559 18.0151
-18.0238 3.35255 17.9723
-18.3023 3.39045 17.7691
-17.9886 3.53316 17.8525
-18.1746 3.55564 17.733
-18.0365 3.70921 17.6653
-18.241 3.71864 17.5244
-18.1492 3.85449 17.434
-15.4274 4.93137 17.352
-15.5161 5.05822 17.2502
-15.4554 4.81652 17.3209
-15.4766 5.22492 17.2937
-15.5956 5.3049 17.1608
-15.5018 5.41137 17.2467
-16.5676 4.25556 17.0292
-16.3645 4.21326 17.0195
-16.5493 4.34713 16.8919
-15.3679 5.28577 17.4053
-18.3858 3.2684 17.775
-18.6326 3.09044 17.6381
-18.6521 -2.63244 16.7941
-18.6576 -2.42158 17.0515
-18.7497 -2.3677 16.7634
-18.7721 -2.22586 16.8803
-18.709 -2.17681 17.0989
-18.8368 -1.99107 16.856
-18.8471 -1.75678 16.9945
-18.9327 -1.70166 16.703
-18.8308 -1.51967 17.1192
-18.9299 -1.47589 16.8438
-18.9137 -1.2204 16.9669
-18.82 -1.29279 17.1971
-18.8662 -1.00655 17.1384
-18.9183 -0.783062 17.071
-19.0291 -0.766191 16.7851
-15.3519 4.64692 17.423
-15.4478 4.56756 17.3147
-8.69438 0.58997 18.6253
-15.3375 4.36155 17.4232
-15.3873 4.26593 17.3705
-15.3929 4.08254 17.3901
-15.5304 4.22477 17.3077
-15.4585 3.99662 17.3744
-17.9873 3.88013 17.5024
-17.8028 3.80877 17.6653
-17.6473 3.95463 17.5555
-17.8492 4.02506 17.392
-17.511 3.92159 17.6337
-17.4879 4.06936 17.4776
-17.2807 4.02653 17.5861
-17.364 4.16938 17.368
-17.1785 4.13833 17.4392
-17.0364 4.02406 17.5825
-16.949 4.12754 17.4253
-16.7437 4.18604 17.3015
-16.9425 4.33844 17.1208
-16.6406 4.23003 17.156
-16.8047 4.32591 17.0956
-18.272 3.21855 17.8952
-16.7497 4.36151 16.9772
-16.1536 4.11975 17.0849
-16.0603 4.00269 17.1831
-15.9542 4.05031 17.1786
-15.8103 3.92251 17.2666
-15.7732 4.01551 17.2492
-15.7063 3.85939 17.3093
-15.5899 3.8612 17.3442
-15.5089 3.91704 17.3688
-15.6513 4.11011 17.2847
-12.0753 -1.48369 18.8562
-12.254 -1.5094 18.6402
-12.0884 -1.45142 18.4828
-8.15579 1.49024 15.9895
-8.28482 1.40034 16.0181
-8.44701 1.28517 16.1482
-10.2777 -0.178389 17.3368
-10.4635 -0.256373 17.3724
-10.6186 -0.300246 17.4417
-11.0974 -0.501459 17.3185
-11.2481 -0.591601 17.2985
-11.3561 -0.605935 17.2518
-11.5051 -0.66509 17.2564
-11.6146 -0.648677 17.2067
-9.81676 0.137842 17.099
-7.76162 1.64793 16.0449
-7.85028 1.59055 15.9646
-11.8299 -0.589669 17.142
-12.0011 -0.487634 17.1022
-9.72252 0.227156 17.1173
-9.57875 0.337762 17.039
-13.2245 -0.217609 17.8305
-13.3047 -0.301012 17.8265
-13.3818 -0.35434 17.6345
-13.5132 -0.397566 17.5303
-13.3578 -0.366319 17.449
-13.5429 -0.447339 17.3882
-13.6907 -0.485359 17.444
-13.741 -0.546615 17.3301
-13.2111 -0.201892 17.9301
-13.8694 -0.592971 17.4342
-14.0338 -0.834322 17.4204
-13.9314 -0.7118 17.3956
-14.0801 -0.960765 17.3517
-13.1259 -0.159904 17.8022
-12.9984 -0.112061 17.7352
-11.5858 -0.463178 17.0359
-12.8996 -0.131154 17.7547
-15.9697 8.34215 15.7563
-7.48042 1.54962 16.1753
-7.68919 1.56292 16.0286
-11.8876 -0.492468 17.0668
-12.0238 -0.33354 17
-12.1603 -0.335411 17.0997
-12.318 -0.327303 17.2402
-12.4718 -0.427841 17.4569
-12.5452 -0.319567 17.532
-12.654 -0.338154 17.693
-12.7483 -0.239177 17.7353
-12.7759 -0.119043 17.6362
-7.96193 1.59204 15.9311
-10.7589 -0.295007 17.3761
-10.9037 -0.365588 17.3027
-21.0748 -4.50811 14.5432
-20.9076 -4.23035 14.6044
-8.58187 1.14992 16.3206
-9.03114 0.678017 16.797
-9.1947 0.593229 16.9858
-9.31008 0.499955 16.9237
-10.0867 -0.0743914 17.1999
-8.08386 1.5411 15.8935
-8.20435 1.45216 15.9007
-8.8785 0.835513 16.622
-8.95279 0.769388 16.6934
-9.42842 0.428087 16.8774
-9.71999 0.259386 16.9612
-9.92491 0.0594641 17.0451
-17.9029 5.40439 15.4079
-17.428 5.5904 15.9365
-17.2009 5.61586 16.1431
-17.112 5.73712 16.2015
-17.9924 5.31092 15.4251
-16.7887 5.79076 16.3929
-16.7561 6.00661 16.3184
-19.4737 -1.46379 14.3465
-19.3892 -1.18403 14.3857
-19.5134 -0.748901 14.3511
-19.5924 -0.474726 14.2943
-17.9929 5.22489 15.6135
-19.4782 -1.61791 14.4289
-14.1279 -0.709967 19.7553
-13.8891 -0.837069 19.5343
-14.0611 -0.915877 19.7998
-14.0011 -0.594972 19.4916
-14.0637 -0.408317 19.4085
-13.9172 -0.501349 19.3422
-14.0027 -0.32749 19.2342
-13.8624 -0.426855 19.1815
-13.8868 -0.315593 19.1108
-13.7783 -0.30486 18.9732
-13.8121 -0.354799 19.0684
-13.8919 -0.261292 19.0441
-13.9786 -0.261043 19.1396
-13.9713 -0.225963 19.049
-12.351 -1.5045 18.6291
-12.2157 -1.46907 18.4876
-14.0457 -0.225354 19.1446
-14.1679 -0.231492 19.289
-14.2121 -0.202752 19.1936
-14.1185 -0.216912 19.1941
-14.3295 -0.202754 19.2976
-14.3125 -0.215298 19.1927
-14.3991 -0.230845 19.2559
-14.3434 -0.250484 19.0987
-14.4906 -0.297196 19.1811
-14.3619 -0.311608 18.9242
-14.0794 -0.198993 19.0907
-14.0988 -1.08959 19.9555
-13.9097 -1.08936 19.7488
-13.9697 -1.28912 19.9415
-13.7625 -1.34154 19.7542
-13.6175 -1.45007 19.6873
-13.5422 -1.32133 19.4799
-19.2683 2.17355 17.0501
-12.525 -1.54616 18.7317
-12.3461 -1.47127 18.4899
-12.5241 -1.47072 18.5706
-12.6861 -1.49631 18.7246
-12.6224 -1.45752 18.6033
-12.6942 -1.56381 18.8458
-12.8343 -1.55148 18.9174
-12.8807 -1.63334 19.0794
-12.986 -1.58342 19.1085
-13.002 -1.66301 19.2241
-13.1426 -1.65724 19.3384
-13.3088 -1.64989 19.5073
-13.2198 -1.53009 19.3188
-13.4294 -1.59603 19.6234
-13.3201 -1.55225 19.4731
-13.5922 -1.57642 19.7571
-13.511 -1.48502 19.5894
-19.6461 0.47601 14.9922
-19.6616 0.766639 15.1037
-19.6956 1.77919 15.9424
-19.6794 2.17403 15.9658
-20.5699 -3.65052 14.704
-20.1705 -2.86627 14.7509
-19.9716 -2.78882 14.8244
-19.8685 -2.57764 14.8133
-19.7616 -2.4105 14.8165
-19.6468 -2.27486 14.8084
-18.4939 5.02643 15.5369
-19.6965 2.54907 15.7468
-19.7081 2.4394 15.7149
-19.613 3.07158 15.8291
-19.4433 3.7909 15.7309
-19.2168 4.4735 15.2964
-18.9709 4.79515 15.2113
-19.4562 -3.75067 14.7928
-19.5839 -4.01505 14.7695
-19.6773 0.191191 14.6146
-19.649 -0.0184586 14.6388
-19.68 0.136442 14.4854
-19.6524 -0.150116 14.4698
-18.4827 5.10057 15.3715
-18.4031 5.10551 15.4811
-18.4018 5.17784 15.3205
-6.14983 1.24558 15.8369
-6.23193 1.24595 15.922
-6.37932 1.23491 15.9765
-18.6047 5.04381 15.3479
-6.45149 1.26304 16.0807
-6.84826 1.2797 16.0083
-6.97715 1.32034 16.02
-7.25484 1.44204 16.1445
-18.7437 5.01106 15.1894
-18.1305 5.23736 15.4641
-18.2686 5.15409 15.5191
-5.62446 1.30879 14.7938
-5.65255 1.29498 14.945
-19.6466 -0.217982 14.2898
-19.6111 -0.343883 14.1756
-18.1653 -3.0519 13.3501
-18.1438 -3.2249 13.1679
-18.0817 -3.12207 13.2401
-18.0438 -3.22175 13.0959
-17.9204 -3.32095 12.8915
-17.9015 -3.29816 13.0149
-17.8668 -3.35207 12.8153
-17.8063 -3.38199 12.7205
-17.788 -3.39645 12.6258
-5.33189 1.55345 14.4008
-5.27107 1.62538 14.288
-5.1432 1.69306 14.1802
-8.31029 1.38408 15.8542
-8.45949 1.27328 15.9542
-8.62727 1.11929 16.1433
-8.74745 0.992534 16.3412
-8.84823 0.877946 16.4884
-8.94574 0.751352 16.588
-9.16401 0.549416 16.8045
-9.26969 0.481125 16.7265
-9.4144 0.436756 16.7172
-7.96083 1.5453 15.8492
-6.05226 1.26139 15.554
-5.95014 1.24609 15.0733
-6.08046 1.2375 15.2767
-5.29829 1.88244 13.5091
-5.2264 1.76166 13.9887
-17.8408 -3.42891 12.6003
-16.7245 6.49741 16.1483
-16.8983 6.44627 16.0593
-16.5248 7.29385 15.8951
-18.0002 5.40386 15.2913
-16.3428 8.04665 15.6131
-16.2131 8.32773 15.545
-16.0116 8.58473 15.5682
-16.9489 6.17662 16.1519
-16.945 5.9243 16.2576
-17.0413 5.84508 16.2279
-17.88 5.4859 15.4111
-17.9634 5.48575 15.2976
-17.8272 5.54463 15.4892
-17.7508 5.63092 15.5988
-17.6726 5.72154 15.6998
-17.5517 5.72792 15.8172
-17.444 5.76985 15.9188
-17.3241 5.65378 16.0305
-17.3179 5.8433 16.0233
-17.1782 6.04039 16.083
-17.8665 -3.51201 12.5426
-22.3922 -5.57551 12.4467
-22.4701 -5.59763 12.2943
-22.4094 -5.43075 12.509
-22.231 -5.45865 12.8651
-22.1568 -5.3665 13.1061
-22.1552 -5.2762 13.1675
-22.1469 -5.12746 13.2201
-22.0275 -5.02022 13.5148
-22.4319 -5.80442 12.245
-22.4461 -5.70854 12.2629
-21.8079 -5.04474 13.8638
-21.9174 -4.94255 13.7135
-17.2999 -3.80474 16.1183
-17.3945 -3.80003 16.2751
-9.82089 0.166201 16.998
-9.57154 0.387787 16.836
-22.3843 -5.92719 12.2555
-22.4202 -6.11427 12.1236
-22.3423 -6.25398 12.1325
-20.3493 -6.07026 12.5392
-20.5149 -6.13948 12.4523
-20.8282 -6.25204 12.4551
-20.9551 -6.27429 12.5728
-20.9978 -6.27587 12.4467
-21.1046 -6.2891 12.3726
-21.2365 -6.30548 12.4382
-21.211 -6.33476 12.2775
-21.5315 -6.39663 12.4471
-21.471 -6.43819 12.2994
-21.6839 -6.43512 12.4176
-21.7579 -6.38589 12.5133
-21.8589 -6.32162 12.5725
-22.0265 -6.31412 12.4425
-22.1462 -6.23235 12.3798
-21.7134 -5.11798 13.9814
-18.6379 -4.78188 12.0394
-21.3533 -4.78124 14.3938
-19.2176 -5.2412 12.2263
-19.3337 -5.34787 12.1983
-19.4949 -5.50331 12.1713
-19.9025 -5.83843 12.4412
-20.0288 -5.91091 12.3932
-21.6056 -5.07129 14.1374
-21.483 -5.04308 14.2641
-20.854 -3.98419 14.584
-20.7519 -3.74266 14.6246
-20.5973 -3.41811 14.6483
-20.3754 -3.13135 14.7115
-19.7788 -2.19855 14.7562
-19.6823 -2.09724 14.747
-17.7139 -4.00775 15.9174
-17.6566 -3.92331 16.1311
-17.7977 -4.04494 15.7837
-17.8743 -4.0218 15.6818
-17.8405 -4.02865 15.4856
-17.9309 -3.94282 15.4331
-18.025 -3.86583 15.4025
-17.936 -3.86542 15.2882
-18.0706 -3.76481 15.3198
-17.526 -3.87093 16.1835
-18.1495 -3.63181 15.2516
-18.1215 -3.56945 15.154
-18.2085 -3.43753 15.0869
-18.0446 -2.83463 13.6359
-17.9187 -2.86463 13.6713
-18.2796 -3.20372 14.8892
-18.1589 -3.3536 14.9567
-18.445 -2.92644 14.7123
-18.4308 -2.84653 14.6191
-18.4448 -2.74519 14.5381
-17.8936 -2.75279 13.7647
-18.0043 -2.92576 13.555
-18.0944 -2.97514 13.4556
-18.0575 -3.8336 12.6577
-17.9509 -3.82301 12.5118
-18.1142 -3.98401 12.635
-18.1663 -4.24189 12.5185
-18.2479 -4.36507 12.4838
-18.2683 -4.44012 12.3122
-18.4048 -4.59685 12.1616
-18.5283 -4.77397 11.809
-18.4361 -4.66584 11.9745
-18.8282 -4.91249 12.1346
-19.0536 -5.10834 12.1267
-19.2865 -5.32249 12.0626
-19.6841 -5.70474 12.1144
-18.3555 -2.62447 14.3301
-18.1966 -2.65551 14.2207
-20.034 -2.5237 14.7343
-19.8879 -2.33441 14.7537
-21.5008 -4.8583 14.2649
-19.6488 -1.91088 14.6845
-19.567 -1.80201 14.6033
-19.5789 -1.64871 14.4944
-19.683 -1.6976 14.565
-19.5863 -1.46834 14.3628
-19.4675 -1.37032 14.294
-19.5296 -1.33196 14.2621
-19.4449 -1.27977 14.2696
-19.4012 -1.1939 14.2834
-19.4228 -1.02297 14.2891
-19.5431 -0.561773 14.1762
-19.4736 -0.810779 14.1522
-20.3759 -2.85162 14.6545
-18.126 -2.61591 14.1367
-18.0309 -2.69292 14.1605
-18.0124 -2.63775 14.0576
-17.9532 -2.67753 14.0831
-17.9051 -2.65808 13.9328
-17.8062 -2.70154 13.9969
-17.8098 -2.7094 13.8611
-19.8687 -5.84042 12.1898
-20.1277 -5.96358 12.3798
-21.2866 -4.48948 14.4177
-21.1068 -4.28082 14.5
-20.9876 -4.09585 14.5294
-20.949 -3.8522 14.5235
-5.80703 1.29315 14.7292
-5.79255 1.28696 14.8163
-5.8034 1.2807 15.0021
-5.93729 1.24984 14.8899
-6.1672 1.17517 15.071
-6.32633 1.14436 15.1615
-6.30197 1.1952 15.4054
-5.74345 1.31817 14.6423
-6.20617 1.22822 15.6598
-6.40498 1.19759 15.7925
-6.28397 1.21886 15.7649
-6.59009 1.21086 15.9392
-6.79643 1.22116 15.9047
-19.5936 -5.62179 11.9591
-19.4283 -5.46844 11.8972
-5.59677 1.39481 14.5428
-5.62513 1.4646 14.3943
-5.48654 1.52842 14.3838
-10.2172 -0.11708 17.1637
-10.2648 -0.0803224 17.0276
-10.0837 -0.0336857 17.0358
-10.3777 -0.181028 17.2104
-10.5832 -0.221869 17.265
-10.4617 -0.138925 17.1033
-10.7453 -0.248724 17.2347
-10.6354 -0.172269 17.1015
-10.8233 -0.272312 17.1361
-10.9669 -0.379956 17.1897
-10.954 -0.332159 17.0733
-9.07322 0.604616 16.5918
-7.297 1.36103 15.9676
-7.11322 1.33043 15.9631
-7.00899 1.26725 15.8806
-5.60125 1.90162 13.3402
-5.50373 1.85799 13.5326
-5.66702 1.82546 13.5583
-5.42099 1.81349 13.7366
-5.44241 1.75123 13.9025
-5.42463 1.70788 14.0617
-5.49573 1.59273 14.2905
-9.94968 0.0839015 16.8751
-9.32277 0.472922 16.6408
-7.84732 1.508 15.8896
-7.41327 1.43786 16.0785
-7.60172 1.41881 15.9923
-8.20527 1.46489 15.7855
-9.8238 0.185607 16.8992
-9.70485 0.311057 16.7644
-16.4997 7.77161 15.6882
-16.5043 7.9256 15.5881
-16.6353 7.84477 15.5588
-16.5846 8.01957 15.469
-16.4274 8.2005 15.4467
-16.6208 8.20782 15.3134
-16.4573 8.39763 15.2987
-16.2446 8.566 15.3578
-16.7481 7.07941 15.8621
-16.7172 7.39348 15.7262
-18.1565 5.30764 15.2888
-18.2801 5.25377 15.2878
-19.782 2.04612 15.3721
-19.7831 2.71301 15.2548
-19.7682 2.96384 15.1959
-18.0651 5.46817 15.1767
-18.1094 5.38072 15.2169
-16.9506 6.88432 15.8394
-17.0827 6.65063 15.8567
-11.4342 -0.486035 17.0717
-11.2251 -0.313366 16.9386
-11.2824 -0.475157 17.0789
-11.1528 -0.443202 17.1306
-10.9863 -0.245586 16.9305
-11.0843 -0.441884 17.1888
-17.925 5.55797 15.3563
-18.0413 5.58951 15.2014
-17.9212 5.676 15.3934
-17.8141 5.80889 15.5487
-17.6713 5.8888 15.6995
-17.5429 5.83812 15.8237
-17.528 5.96005 15.8337
-17.4285 6.09334 15.9
-17.1548 6.35701 15.9578
-19.7 3.41045 15.1522
-7.79973 1.40679 15.8421
-7.95886 1.45166 15.7675
-8.08826 1.50669 15.7468
-8.32924 1.40554 15.717
-8.42057 1.33155 15.7933
-8.60801 1.13305 15.9718
-8.55183 1.23341 15.8078
-8.8892 0.819132 16.349
-9.23074 0.516905 16.5469
-9.37848 0.476921 16.582
-9.52719 0.409271 16.6603
-8.76791 0.985146 16.2246
-19.3166 4.5347 14.7817
-19.4823 4.04736 15.193
-19.2657 4.65624 14.66
-19.194 4.78313 14.5746
-19.0027 5.07904 14.4202
-18.9075 5.2081 14.4043
-18.9716 5.17553 14.3196
-18.8613 5.17063 14.566
-18.805 5.12714 14.7794
-18.7458 5.09487 14.9627
-18.6197 5.15249 15.0586
-18.5131 5.15051 15.2265
-18.4422 5.25673 15.0914
-19.6496 3.73433 14.9906
-19.7037 3.54519 15.0108
-20.9472 -6.27353 12.2931
-21.344 -6.3898 12.253
-21.5504 -6.53451 12.1741
-21.4041 -6.47399 12.1515
-21.6171 -6.48587 12.2969
-22.2518 -6.27847 12.2376
-22.4242 -6.26199 12.0241
-22.4998 -5.92544 12.1115
-20.6633 -6.19838 12.3861
-20.3897 -6.09867 12.2708
-19.7042 -1.51189 14.4385
-19.4332 -1.14186 14.2044
-19.5156 -0.621776 14.0459
-20.228 -2.59206 14.673
-19.5747 -0.360716 14.0128
-22.2476 -5.255 12.9715
-20.0781 -5.96507 12.176
-20.2253 -6.0251 12.3425
-22.5142 -5.7444 12.152
-19.7949 -1.99339 14.6939
-19.6395 -0.0950374 14.0983
-19.68 0.0472719 14.319
-15.7731 -2.76545 16.7116
-15.605 -2.56834 16.5987
-15.9306 -2.92518 16.8194
-16.0389 -3.00916 16.8341
-16.1206 -3.08342 16.8113
-16.1582 -3.1518 16.9887
-16.2909 -3.29219 16.9368
-16.4404 -3.37871 16.8901
-15.5225 -2.41435 16.3594
-15.6413 -2.58527 16.3305
-16.5822 -3.43708 16.8853
-16.9309 -3.56916 16.5712
-16.7335 -3.4894 16.67
-15.1086 -2.02345 16.4806
-13.6011 -0.504474 17.264
-13.6322 -0.565904 17.1201
-13.4709 -0.458233 17.2088
-13.4141 -0.411111 17.3075
-13.4567 -0.408105 17.416
-15.0528 -1.94682 16.2843
-13.9035 -0.815039 17.2597
-13.797 -0.6594 17.2531
-14.1632 -1.10065 17.3221
-13.9339 -0.954086 17.1283
-14.1593 -1.16371 17.1562
-14.2408 -1.29145 17.0371
-14.0039 -1.1334 16.9138
-14.3342 -1.38586 16.8784
-14.4113 -1.45965 16.7205
-14.2685 -1.35352 16.6763
-14.5852 -1.61167 16.6184
-14.7824 -1.76233 16.4687
-14.7943 -1.75423 16.2276
-14.6489 -1.65218 16.3652
-14.9204 -1.83454 16.3248
-13.2774 -0.317258 17.6122
