26.5547 -3.16761 0.529019
26.4669 -3.21973 0.512063
26.3491 -3.27007 0.480684
26.2103 -3.32842 0.446639
26.0626 -3.39747 0.417987
25.9309 -3.46954 0.402246
25.8375 -3.538 0.389304
25.7926 -3.53424 0.36979
25.7623 -3.58149 0.375762
25.7038 -3.67715 0.388962
25.5976 -3.77014 0.384853
25.5081 -3.84285 0.401429
25.4586 -3.84343 0.355653
25.3871 -3.91978 0.372746
25.3229 -3.98679 0.369237
25.2578 -4.03829 0.361096
25.1919 -4.09198 0.360076
25.1283 -4.15869 0.359028
25.0624 -4.21823 0.375537
24.9776 -4.25486 0.355758
24.923 -4.31058 0.389001
24.8426 -4.35321 0.385032
24.787 -4.40934 0.353466
24.7859 -4.42109 0.412921
24.725 -4.48974 0.438318
24.6637 -4.54544 0.475007
24.6016 -4.60011 0.497043
24.5934 -4.6388 0.544635
24.6074 -4.64619 0.600041
24.5313 -4.68213 0.6259
24.4489 -4.72169 0.630782
24.3644 -4.75592 0.638274
24.2876 -4.78659 0.654093
24.2211 -4.83167 0.664449
24.0744 -4.85323 0.647467
23.9802 -4.88101 0.673805
23.8916 -4.90384 0.659723
23.8446 -4.87719 0.638152
23.7476 -4.89562 0.634113
23.7178 -4.87309 0.597638
23.6289 -4.87655 0.587581
23.6146 -4.82812 0.550056
23.5015 -4.83124 0.551925
23.4782 -4.80689 0.509627
23.4014 -4.79013 0.49627
23.3034 -4.7949 0.528841
23.2252 -4.75978 0.501785
23.1304 -4.74553 0.488557
23.0527 -4.70725 0.484028
22.9581 -4.67806 0.492131
22.8765 -4.65882 0.493448
22.8444 -4.62388 0.467818
22.7703 -4.58916 0.472789
22.6893 -4.54487 0.466925
22.624 -4.52014 0.509557
22.5459 -4.46728 0.495174
22.4799 -4.43236 0.529314
22.4227 -4.38142 0.508835
22.3563 -4.33043 0.534542
22.2723 -4.29414 0.54886
22.2503 -4.25178 0.525375
22.175 -4.20913 0.561195
22.15 -4.17953 0.531622
22.0694 -4.13376 0.567952
22.0597 -4.0971 0.532314
22.0498 -4.056 0.504882
21.9954 -4.03281 0.563773
21.9217 -3.96718 0.592032
21.8718 -3.9497 0.642944
21.7976 -3.89746 0.66188
21.7588 -3.83729 0.670678
21.6874 -3.78923 0.727131
21.6199 -3.72771 0.768538
21.5444 -3.65598 0.832601
21.4728 -3.61197 0.916285
21.4266 -3.55244 0.939679
21.3885 -3.51222 1.01274
21.3499 -3.45873 1.02347
21.3043 -3.41798 1.08544
21.2805 -3.37238 1.06892
21.2504 -3.36451 1.15555
21.2088 -3.28982 1.18981
21.1697 -3.25042 1.28947
21.121 -3.19841 1.3907
21.0748 -3.13528 1.49721
21.0544 -3.14283 1.59839
21.0059 -3.09028 1.70482
20.9675 -3.03687 1.81893
20.9355 -2.97854 1.93216
20.9306 -3.00433 2.01169
20.9057 -2.94405 2.11066
20.8909 -2.90386 2.19998
20.8776 -2.87196 2.28256
20.87 -2.83571 2.35399
20.8748 -2.83283 2.43026
20.8805 -2.82234 2.51924
20.8748 -2.76025 2.58126
20.8589 -2.71354 2.63255
20.8661 -2.69119 2.71277
20.8842 -2.66802 2.80441
20.9013 -2.65304 2.89153
20.9248 -2.63626 2.96206
20.9521 -2.66638 3.00554
20.9736 -2.6518 3.06862
21.012 -2.63373 3.13858
21.0577 -2.64461 3.20179
21.1012 -2.5884 3.28286
21.1346 -2.59892 3.35237
21.2015 -2.59017 3.43087
21.2841 -2.56347 3.53858
21.3461 -2.54371 3.64085
21.3894 -2.55296 3.69239
21.4616 -2.52637 3.78537
21.5427 -2.50621 3.8755
21.5938 -2.45129 3.96245
21.6723 -2.44881 4.04149
21.7463 -2.40192 4.11592
21.8073 -2.40891 4.1782
21.8702 -2.41731 4.23067
21.9284 -2.38322 4.28736
21.9324 -2.42849 4.28568
22.007 -2.44627 4.3457
22.0978 -2.45551 4.41369
22.1742 -2.43313 4.46807
22.2638 -2.47312 4.53045
22.3701 -2.47171 4.59354
22.4713 -2.51762 4.65504
22.6009 -2.50808 4.72907
22.7148 -2.54252 4.79545
22.7984 -2.57278 4.85425
22.8823 -2.57074 4.9034
22.9547 -2.53394 4.93267
23.0519 -2.56217 4.97943
23.1437 -2.55262 5.02183
23.2107 -2.54433 5.04445
23.2755 -2.5528 5.06913
23.3524 -2.55834 5.09005
23.4054 -2.58009 5.11328
23.4675 -2.60467 5.15827
23.6006 -2.57788 5.20514
23.7546 -2.54335 5.24601
23.8543 -2.48064 5.29025
23.9482 -2.48451 5.34186
24.0153 -2.4535 5.36631
24.0769 -2.42765 5.39313
24.1313 -2.40177 5.42579
24.1833 -2.36776 5.45084
24.2591 -2.37192 5.49566
24.3011 -2.33366 5.52534
24.385 -2.32116 5.54062
24.449 -2.3376 5.54517
24.5469 -2.32992 5.53373
24.6537 -2.32816 5.54044
24.7349 -2.34083 5.55827
24.8642 -2.30489 5.56796
24.9584 -2.2537 5.6046
24.9334 -2.21089 5.62112
24.9756 -2.16818 5.65202
25.0314 -2.11772 5.65223
25.1001 -2.07216 5.6646
25.1964 -2.06253 5.6494
25.2858 -2.00899 5.63353
25.4034 -1.96849 5.62975
25.4852 -1.98124 5.64165
25.5613 -1.94761 5.62894
25.578 -1.98031 5.62827
25.6668 -1.95779 5.62554
25.7262 -1.96941 5.63968
25.7991 -1.93412 5.63067
25.8589 -1.89577 5.61934
25.906 -1.91242 5.60712
25.9493 -1.86745 5.59011
25.9879 -1.81633 5.57825
26.0262 -1.81733 5.56947
26.0618 -1.81983 5.54821
26.0928 -1.77008 5.52562
26.1342 -1.76442 5.4974
26.1495 -1.82691 5.51138
26.2082 -1.83867 5.48743
26.2602 -1.81521 5.45137
26.293 -1.85376 5.42891
26.3374 -1.81498 5.38118
26.402 -1.82849 5.36787
26.4578 -1.76295 5.31108
26.5336 -1.75893 5.27316
26.5679 -1.67528 5.23506
26.6529 -1.62421 5.19685
26.7409 -1.65066 5.17721
26.8367 -1.58661 5.11445
26.9217 -1.52792 5.06245
26.9971 -1.54972 5.03788
27.0681 -1.51861 5.0174
27.1399 -1.51457 4.97894
27.1756 -1.46624 4.95826
27.2168 -1.41861 4.94555
27.2943 -1.41782 4.89625
27.3934 -1.41196 4.8418
27.4975 -1.35957 4.80802
27.6147 -1.28494 4.73465
27.725 -1.236 4.63402
27.7712 -1.21041 4.59526
27.797 -1.24348 4.58299
27.8608 -1.30265 4.56464
27.9399 -1.24015 4.51545
27.9896 -1.25675 4.45443
28.0506 -1.26223 4.41706
28.0857 -1.32926 4.40971
28.1301 -1.33543 4.34226
28.1727 -1.31704 4.28583
28.2047 -1.35609 4.22412
28.2487 -1.384 4.14654
28.2636 -1.45028 4.09376
28.3154 -1.45844 4.00146
28.3441 -1.52351 3.94779
28.397 -1.51875 3.8633
28.4284 -1.57998 3.81493
28.465 -1.65168 3.78174
28.4722 -1.73744 3.74615
28.4683 -1.82539 3.71203
28.5182 -1.81928 3.62419
28.5555 -1.82894 3.55113
28.5477 -1.88824 3.54185
28.5626 -1.89832 3.47363
28.5441 -1.94514 3.52502
28.5467 -2.00982 3.49508
28.587 -2.02311 3.35995
28.5837 -2.10494 3.30221
28.6083 -2.12181 3.20053
28.6059 -2.1959 3.18545
28.6104 -2.21763 3.09175
28.5965 -2.28423 3.06924
28.6178 -2.30988 2.9785
28.6041 -2.34423 2.89097
28.6125 -2.33854 2.79837
28.5949 -2.43317 2.71851
28.5611 -2.51284 2.61862
28.5506 -2.59154 2.53906
28.534 -2.66182 2.47778
28.5197 -2.6711 2.40799
28.4959 -2.74423 2.39363
28.4792 -2.78662 2.34214
28.46 -2.83494 2.28707
28.4279 -2.91997 2.293
28.3999 -2.97518 2.23393
28.3709 -2.99096 2.17321
28.345 -3.03029 2.11709
28.3251 -3.08968 2.08893
28.293 -3.13141 2.05693
28.2647 -3.16959 2.02492
28.2369 -3.21441 1.99969
28.2111 -3.23549 1.94006
28.1661 -3.27808 1.9193
28.1417 -3.29294 1.85667
28.105 -3.3375 1.81494
28.0692 -3.32585 1.75167
28.0263 -3.35094 1.70427
27.9851 -3.35761 1.63678
27.9229 -3.36206 1.53983
27.8538 -3.37921 1.45581
27.8317 -3.34669 1.38029
27.7727 -3.35027 1.32294
27.7602 -3.31159 1.2456
27.8085 -3.27976 1.23038
27.7986 -3.24136 1.16666
27.757 -3.23687 1.12646
27.7355 -3.19301 1.0673
27.7064 -3.13138 1.00139
27.6626 -3.09445 0.939559
27.6251 -3.08102 0.884368
27.5726 -3.07617 0.847044
27.4885 -3.09076 0.811482
27.4505 -3.05336 0.771181
27.4278 -3.03729 0.754441
27.3954 -3.02474 0.738134
27.3302 -3.0573 0.733391
27.2603 -3.04242 0.70186
27.188 -3.0227 0.666179
27.1018 -3.06388 0.65988
27.0282 -3.04276 0.62206
26.9432 -3.08572 0.613441
26.8709 -3.0604 0.583073
26.7907 -3.09048 0.576167
26.707 -3.10926 0.559932
