-2.18405 3.15026 17.9853
-2.2515 3.15507 18.0442
-2.32873 3.15747 18.1218
-2.38115 3.18959 18.0947
-2.41909 3.18016 18.1696
-2.50364 3.20825 18.2155
-2.58047 3.24733 18.2647
-2.62828 3.28309 18.2653
-2.69637 3.31109 18.329
-2.76563 3.36092 18.384
-2.80783 3.3808 18.4657
-2.86234 3.41992 18.6011
-3.0381 3.59045 18.8201
-3.10802 3.67923 19.0518
-3.22263 3.86034 19.1404
-3.34805 4.0441 19.3606
-3.51136 4.26518 19.5612
-3.61673 4.44511 19.7101
-3.67548 4.60557 19.8315
-3.71681 4.7224 19.8236
-3.73286 4.83017 19.926
-3.72751 4.83587 20.0126
-3.72477 4.96324 20.1199
-3.70524 5.07246 20.2435
-3.66405 5.18148 20.3851
-3.6134 5.30825 20.5102
-3.54452 5.44945 20.6821
-3.46169 5.74555 20.8713
-3.38438 6.01075 21.0067
-3.36389 6.15759 21.0012
-3.34048 6.26912 21.0406
-3.318 6.34016 21.0849
-3.31065 6.40084 21.1015
-3.27575 6.4855 21.1574
-3.23221 6.58319 21.2105
-3.1945 6.68649 21.2674
-3.15205 6.78668 21.317
-3.10943 6.87769 21.3645
-3.08355 6.86692 21.4077
-3.04466 6.93867 21.4516
-2.99388 6.99983 21.4875
-2.96621 7.08532 21.4949
-2.92389 7.12617 21.5414
-2.87844 7.19985 21.5735
-2.81024 7.261 21.6115
-2.77573 7.3172 21.6276
-2.68879 7.37764 21.6694
-2.55227 7.44946 21.7366
-2.43197 7.53012 21.807
-2.31727 7.58356 21.8634
-2.23418 7.63684 21.8978
-2.16375 7.6127 21.9408
-2.08173 7.62181 21.9704
-2.04503 7.6688 21.9824
-1.96008 7.66028 22.0072
-1.87673 7.67786 22.0297
-1.76365 7.64278 22.0662
-1.6244 7.65835 22.0954
-1.47928 7.66321 22.1313
-1.40701 7.61446 22.153
-1.25466 7.6001 22.1777
-1.0976 7.58595 22.207
-0.942797 7.57827 22.2289
-0.791594 7.57041 22.2363
-0.732284 7.52411 22.2689
-0.589964 7.52053 22.2769
-0.509314 7.46581 22.3086
-0.367492 7.42694 22.3268
-0.222295 7.39815 22.344
-0.0865933 7.39768 22.339
0.0485587 7.39405 22.3488
0.135349 7.31228 22.3757
0.268146 7.25891 22.3651
0.37038 7.15706 22.3766
0.456935 7.05119 22.3938
0.548385 6.96397 22.3839
0.62019 6.86151 22.381
0.681288 6.77071 22.3944
0.742732 6.73712 22.3691
0.812549 6.70921 22.3564
0.874802 6.62566 22.367
0.933464 6.54395 22.363
0.999331 6.52976 22.3424
0.982729 6.46567 22.3598
1.02277 6.38877 22.3563
1.0533 6.31099 22.3346
1.09748 6.23861 22.3271
1.14348 6.16619 22.3003
1.19592 6.08976 22.2698
1.21892 6.0067 22.271
1.27839 5.93457 22.2202
1.33583 5.86692 22.1618
1.36382 5.79788 22.1608
1.41758 5.74262 22.1181
1.45836 5.68433 22.0704
1.51001 5.62706 22.033
1.53698 5.57211 21.973
1.58082 5.52341 21.9152
1.57654 5.47035 21.9079
1.60039 5.44311 21.8485
1.61788 5.39583 21.8264
1.59387 5.36994 21.8617
1.60597 5.31892 21.8374
1.60925 5.268 21.8203
1.59726 5.21153 21.8078
1.62886 5.16958 21.7344
1.63433 5.09672 21.706
1.64173 5.03919 21.6458
1.62757 4.97918 21.639
1.64881 4.90916 21.6039
1.67862 4.90334 21.5421
1.71167 4.87607 21.4723
1.68069 4.82185 21.476
1.66391 4.75244 21.4723
1.68367 4.69824 21.4064
1.69466 4.64448 21.345
1.67888 4.5909 21.3536
1.68238 4.50197 21.2894
1.70435 4.41792 21.1875
1.72793 4.33614 21.0818
1.77314 4.30728 20.9881
1.76436 4.25078 20.9251
1.76496 4.20022 20.8756
1.78922 4.202 20.83
1.79808 4.18127 20.7869
1.77098 4.13009 20.7755
1.76755 4.11306 20.7216
1.74256 4.05837 20.6944
1.72993 4.02467 20.64
1.70394 3.97802 20.6359
1.66904 3.93479 20.6231
1.62902 3.88629 20.6035
1.58735 3.82617 20.5772
1.55984 3.78723 20.4932
1.51999 3.72897 20.422
1.47032 3.65302 20.3942
1.43434 3.61897 20.316
1.38142 3.52713 20.2483
1.34005 3.4769 20.145
1.31431 3.44778 20.0736
1.31368 3.46138 20.0245
1.28912 3.41606 19.947
1.26738 3.39072 19.8617
1.23649 3.3797 19.7835
1.21672 3.35488 19.712
1.20216 3.3261 19.6413
1.14261 3.23548 19.5789
1.09302 3.18166 19.4777
1.03908 3.14565 19.3945
1.06731 3.17643 19.3468
1.0371 3.15147 19.2719
0.997072 3.12196 19.1968
0.994028 3.13368 19.1343
0.917111 3.07791 19.0562
0.834165 3.02833 18.9883
0.75885 3.00172 18.9197
0.696227 2.97727 18.9002
0.645387 2.95928 18.8381
0.543877 2.91995 18.7787
0.43399 2.89965 18.7098
0.373632 2.88095 18.6645
0.332705 2.88222 18.6128
0.276323 2.8807 18.5577
0.212781 2.8745 18.5131
0.161178 2.88495 18.4464
0.0592811 2.88819 18.3739
-0.0737066 2.90388 18.3207
-0.191685 2.91312 18.2981
-0.306633 2.93706 18.2617
-0.362374 2.97178 18.2106
-0.440357 2.95933 18.2486
-0.518982 2.95846 18.2957
-0.665205 2.98521 18.3102
-0.7988 3.01476 18.2943
-0.895666 3.00457 18.3394
-0.962506 3.00132 18.4106
-1.00897 2.95833 18.5039
-1.10281 2.96381 18.5261
-1.17314 2.96514 18.5453
-1.20828 2.91849 18.6285
-1.26405 2.93374 18.6099
-1.3194 2.95357 18.5798
-1.37436 2.97169 18.5365
-1.42906 2.98979 18.4851
-1.47566 3.00483 18.4381
-1.5057 3.04245 18.3841
-1.58209 3.0489 18.3546
-1.62201 3.07975 18.2716
-1.72244 3.07173 18.2282
-1.79188 3.08575 18.155
-1.84306 3.10576 18.0779
-1.93219 3.10068 18.0678
-1.97136 3.11688 18.02
-2.01993 3.13119 17.9861
-2.08319 3.12476 18.0175
