28.8062 29.6778 -12.5128
28.8256 29.7848 -12.5628
28.8373 29.82 -12.6383
28.8658 29.9021 -12.6523
28.8487 29.8831 -12.7052
28.869 29.9645 -12.768
28.8757 30.0553 -12.8361
28.8834 30.1395 -12.9229
28.8837 30.2307 -12.9466
28.8726 30.3373 -13.0347
28.8709 30.4308 -13.1169
28.8801 30.5244 -13.189
28.8896 30.6148 -13.243
28.8819 30.6951 -13.3388
28.9052 30.7747 -13.3547
28.9249 30.8657 -13.4356
28.9272 30.9671 -13.5169
28.9097 30.9907 -13.6068
28.9028 31.0883 -13.6736
28.8809 31.1366 -13.7841
28.8665 31.2197 -13.8248
28.8364 31.2498 -13.8933
28.8122 31.3129 -13.9371
28.7984 31.3528 -14.0264
28.7783 31.4116 -14.138
28.746 31.4768 -14.2622
28.7146 31.5534 -14.2798
28.7005 31.5717 -14.3363
28.697 31.6067 -14.3896
28.6802 31.6705 -14.4677
28.6634 31.755 -14.5345
28.6735 31.7669 -14.6109
28.6442 31.8596 -14.6634
28.6305 31.8741 -14.7443
28.5832 31.9433 -14.8144
28.5593 32.0143 -14.8802
28.5271 32.0805 -14.9339
28.4929 32.0898 -15.0132
28.448 32.1116 -15.0938
28.4052 32.1363 -15.1849
28.3811 32.2175 -15.1982
28.3537 32.2464 -15.261
28.3129 32.2479 -15.3245
28.2572 32.2669 -15.4252
28.1875 32.3496 -15.5366
28.1081 32.4501 -15.6493
28.0421 32.4948 -15.7908
27.9864 32.523 -15.8735
27.9412 32.5705 -15.9256
27.8846 32.5774 -15.9942
27.8133 32.5977 -16.0728
27.7407 32.6104 -16.1512
27.6863 32.6664 -16.1897
27.6468 32.6549 -16.2365
27.6008 32.6768 -16.2711
27.5544 32.706 -16.3145
27.5307 32.6793 -16.3588
27.4861 32.7046 -16.3969
27.4388 32.7278 -16.4315
27.4142 32.6825 -16.474
27.3636 32.671 -16.5336
27.3052 32.6565 -16.5786
27.2348 32.7115 -16.6079
27.1825 32.6852 -16.6373
27.1352 32.6572 -16.6583
27.0808 32.6875 -16.6866
27.0216 32.6753 -16.7107
26.9316 32.6529 -16.7375
26.8342 32.6524 -16.7652
26.7733 32.6833 -16.7832
26.6918 32.6594 -16.7839
26.6002 32.6711 -16.7981
26.5113 32.6804 -16.8271
26.4365 32.6589 -16.8528
26.3438 32.6572 -16.8763
26.2989 32.6201 -16.8896
26.1699 32.6329 -16.9333
26.0657 32.6175 -16.9524
25.9636 32.6371 -16.9692
25.8919 32.6009 -16.9909
25.7869 32.6104 -17.0223
25.6999 32.5856 -17.062
25.645 32.6077 -17.0988
25.5947 32.5633 -17.1377
25.52 32.5627 -17.1873
25.4494 32.5349 -17.2411
25.4071 32.5166 -17.2846
25.3757 32.5377 -17.3152
25.3385 32.4924 -17.3723
25.2935 32.4522 -17.4357
25.2539 32.414 -17.4864
25.2199 32.396 -17.5479
25.1846 32.3646 -17.6149
25.1821 32.3962 -17.644
25.152 32.3494 -17.6721
25.131 32.3461 -17.7257
25.0838 32.3111 -17.7616
25.0374 32.2893 -17.7995
24.9937 32.287 -17.8289
24.9586 32.2978 -17.8468
24.9263 32.2786 -17.8476
24.8936 32.2804 -17.8561
24.8521 32.2864 -17.8583
24.8045 32.2944 -17.8581
24.7501 32.306 -17.8593
24.6956 32.3209 -17.8412
24.6479 32.3411 -17.8291
24.5901 32.3459 -17.8277
24.5124 32.3585 -17.8254
24.4694 32.3143 -17.835
24.3633 32.3267 -17.8329
24.2481 32.3311 -17.8449
24.1391 32.3335 -17.8705
24.0401 32.341 -17.8793
23.9482 32.3547 -17.8755
23.8524 32.3786 -17.8673
23.7765 32.3549 -17.8744
23.645 32.3803 -17.8808
23.5816 32.3508 -17.8935
23.4467 32.404 -17.8781
23.3503 32.4038 -17.8778
23.2483 32.4157 -17.8842
23.2248 32.3738 -17.8993
23.0967 32.3923 -17.9021
22.9715 32.4218 -17.8957
22.8988 32.3888 -17.9132
22.832 32.4181 -17.9171
22.7762 32.4081 -17.9258
22.7109 32.4394 -17.9214
22.6542 32.4104 -17.9372
22.5577 32.4424 -17.9293
22.4728 32.4089 -17.9369
22.3614 32.4595 -17.9078
22.232 32.45 -17.9175
22.0992 32.4276 -17.9296
21.9727 32.4494 -17.9223
21.8189 32.4451 -17.9179
21.6444 32.4168 -17.9288
21.4739 32.3759 -17.9216
21.4342 32.4243 -17.9056
21.3446 32.4243 -17.8839
21.222 32.3612 -17.8905
21.1402 32.3866 -17.8858
21.0273 32.3503 -17.8873
20.9205 32.3249 -17.8814
20.8247 32.3049 -17.864
20.7766 32.3554 -17.8385
20.7397 32.2909 -17.853
20.6663 32.2772 -17.8369
20.6233 32.3226 -17.8104
20.5595 32.2973 -17.7831
20.4947 32.263 -17.7478
20.419 32.2236 -17.7135
20.3318 32.1836 -17.6768
20.2399 32.1458 -17.6307
20.1456 32.1155 -17.5816
20.0498 32.0953 -17.5427
19.9634 32.0828 -17.4994
19.9306 32.0214 -17.4909
19.8559 32.016 -17.4512
19.7963 31.9995 -17.406
19.7445 31.9642 -17.3653
19.702 31.9134 -17.326
19.6478 31.9223 -17.2849
19.6187 31.8384 -17.2625
19.5497 31.8129 -17.2045
19.4972 31.7163 -17.1434
19.4438 31.7616 -17.091
19.4044 31.6943 -17.0318
19.3586 31.6585 -16.9773
19.3061 31.6176 -16.9234
19.2559 31.5506 -16.8553
19.2217 31.5847 -16.8096
19.1835 31.5204 -16.7541
19.1536 31.5062 -16.7017
19.1221 31.4045 -16.6499
19.0698 31.3818 -16.5775
19.0204 31.3696 -16.4963
18.9749 31.2569 -16.4155
18.938 31.2621 -16.3515
18.8962 31.2021 -16.2709
18.8551 31.1369 -16.1684
18.8266 31.0323 -16.1113
18.785 30.9973 -16.0109
18.7577 30.9161 -15.9417
18.7144 30.9021 -15.854
18.6751 30.8273 -15.784
18.634 30.7324 -15.6957
18.598 30.7327 -15.595
18.5663 30.6529 -15.4865
18.5365 30.5672 -15.3735
18.4888 30.5169 -15.2439
18.4352 30.4049 -15.0783
18.3929 30.2955 -14.9174
18.368 30.1691 -14.814
18.3435 30.1466 -14.7032
18.3493 30.0515 -14.6394
18.3339 30.0452 -14.5448
18.3228 30.0243 -14.4582
18.3237 29.9464 -14.4147
18.3072 29.9264 -14.3417
18.2953 29.9013 -14.2768
18.3009 29.8263 -14.2503
18.3052 29.7764 -14.1622
18.3188 29.6941 -14.0743
18.3352 29.6354 -14.0055
18.3582 29.6059 -13.9263
18.3728 29.5111 -13.8953
18.3959 29.4493 -13.7945
18.4406 29.3078 -13.7512
18.4962 29.1677 -13.6954
18.538 29.0941 -13.5789
18.5724 28.9795 -13.5466
18.6135 28.8792 -13.4563
18.6632 28.7691 -13.4476
18.7215 28.638 -13.3708
18.781 28.4932 -13.2925
18.8413 28.3685 -13.2248
18.8904 28.2822 -13.168
18.9258 28.2084 -13.1186
18.9721 28.1357 -13.0793
19.0247 28.0775 -13.0465
19.0653 28.0159 -13.042
19.1251 27.9501 -13.0293
19.1959 27.8786 -13.0179
19.2559 27.8061 -13.0202
19.34 27.7396 -13.0045
19.4055 27.666 -12.9907
19.429 27.6605 -12.9672
19.4619 27.6237 -12.9711
19.5257 27.57 -12.9905
19.618 27.5324 -12.957
19.7011 27.5111 -12.9057
19.7749 27.5117 -12.8428
19.8252 27.485 -12.8519
19.9097 27.4881 -12.8005
19.9865 27.4737 -12.7599
20.063 27.4542 -12.7317
20.1538 27.444 -12.7109
20.2411 27.4119 -12.6884
20.3307 27.3863 -12.6832
20.4319 27.4235 -12.6069
20.5189 27.4065 -12.5997
20.6119 27.4445 -12.5275
20.7111 27.4236 -12.4963
20.8229 27.4206 -12.4736
20.9285 27.3958 -12.4403
21.0322 27.3631 -12.4162
21.1174 27.3997 -12.374
21.2173 27.3844 -12.3684
21.287 27.3898 -12.302
21.4094 27.3746 -12.284
21.5452 27.343 -12.2649
21.681 27.3548 -12.2154
21.8213 27.3483 -12.1572
21.9139 27.3377 -12.12
22.004 27.3223 -12.1168
22.106 27.3223 -12.0626
22.2337 27.3207 -12.0183
22.3609 27.295 -11.982
22.4705 27.2726 -11.9504
22.5771 27.2654 -11.9209
22.6912 27.2604 -11.8843
22.7914 27.268 -11.8328
22.7984 27.231 -11.8866
23.0081 27.25 -11.7847
23.1216 27.2176 -11.7631
23.3127 27.2161 -11.6736
23.5175 27.2005 -11.6201
23.679 27.21 -11.5553
23.8797 27.1704 -11.5189
23.9706 27.1835 -11.474
24.0618 27.2053 -11.4303
24.1918 27.1626 -11.4358
24.2482 27.1637 -11.3938
24.2988 27.1886 -11.3632
24.3949 27.1817 -11.3692
24.4334 27.2195 -11.3332
24.5254 27.2197 -11.3258
24.6198 27.2344 -11.3191
24.7248 27.2668 -11.3199
24.8244 27.2646 -11.3162
24.9113 27.2903 -11.3011
25.0101 27.3271 -11.3092
25.0979 27.3482 -11.3062
25.174 27.342 -11.3053
25.2205 27.3934 -11.2772
25.3032 27.3912 -11.3095
25.3504 27.4581 -11.2875
25.4481 27.4726 -11.2927
25.5338 27.503 -11.3062
25.6065 27.5008 -11.3356
25.6983 27.5766 -11.3133
25.8292 27.6395 -11.3206
25.9258 27.7042 -11.3309
26.0273 27.7231 -11.3707
26.1162 27.8299 -11.3489
26.2777 27.8715 -11.3794
26.4196 27.9533 -11.4457
26.5762 28.0177 -11.4693
26.7106 28.1094 -11.4837
26.7853 28.1083 -11.5522
26.9447 28.2076 -11.5573
27.1561 28.3007 -11.5831
27.337 28.3964 -11.6502
27.4425 28.4429 -11.6244
27.5334 28.5023 -11.6321
27.6377 28.5298 -11.6945
27.7211 28.5804 -11.7151
27.8091 28.6263 -11.7376
27.9001 28.6653 -11.7591
27.982 28.707 -11.7885
28.0027 28.7485 -11.7492
28.0869 28.8132 -11.7791
28.1587 28.8768 -11.8243
28.2287 28.9046 -11.8795
28.2992 28.9746 -11.9026
28.3737 29.0397 -11.931
28.4331 29.0949 -11.9645
28.485 29.1188 -12.0077
28.5473 29.1902 -12.0042
28.5832 29.2204 -12.0552
28.6083 29.2603 -12.1107
28.6392 29.3339 -12.1249
28.6588 29.3779 -12.1822
28.693 29.4315 -12.2439
28.7315 29.4909 -12.3105
28.7499 29.5503 -12.3847
