24.9226 32.5785 -17.9879
28.9653 32.0917 -14.4253
28.9296 32.0752 -14.4182
29.0268 32.0632 -14.368
28.9562 32.0624 -14.3789
29.0508 32.1153 -14.4297
29.0995 32.0577 -14.3386
29.1489 32.0772 -14.3588
29.1631 32.0292 -14.2945
29.2127 32.0755 -14.3553
29.2026 32.041 -14.31
29.1523 32.1158 -14.4247
29.2239 32.1224 -14.4035
29.2871 32.1816 -14.4333
29.2858 32.1278 -14.3881
29.2846 32.231 -14.48
29.2309 32.1716 -14.4474
24.8053 32.6275 -17.9142
24.7402 32.6425 -17.8794
24.8277 32.5598 -17.8994
24.7619 32.5726 -17.8783
24.8836 32.6149 -17.9533
24.8808 32.5437 -17.9398
28.8488 32.0262 -14.3516
28.9958 32.0331 -14.3004
29.1264 32.0143 -14.2772
23.7368 33.068 -18.3418
23.8102 32.9929 -18.2674
23.8823 32.9411 -18.2637
23.9331 32.9419 -18.3089
23.9439 32.8889 -18.2511
24.0803 32.8131 -18.1544
24.1521 32.8188 -18.1489
24.2315 32.8122 -18.1358
24.3074 32.7617 -18.1028
24.3733 32.725 -18.071
24.4273 32.7124 -18.0232
29.0737 32.0169 -14.3
29.1702 31.9776 -14.2274
29.2201 31.9884 -14.2526
28.9223 32.0285 -14.3396
25.0989 32.3973 -17.8408
25.0999 32.4286 -17.8681
25.1243 32.4084 -17.8179
25.1015 32.374 -17.8098
25.1316 32.4056 -17.7817
23.62 33.1287 -18.3519
23.5614 33.148 -18.3367
23.5656 33.1678 -18.385
23.6811 33.0911 -18.3211
23.625 33.1074 -18.3005
23.7435 33.0491 -18.2936
23.6861 33.064 -18.2743
23.7424 33.0186 -18.2484
23.8451 32.9397 -18.2189
23.7877 32.9709 -18.2178
23.8958 32.8921 -18.2145
23.9535 32.8522 -18.1872
24.0164 32.8218 -18.141
24.081 32.801 -18.0828
24.2146 32.773 -18.0711
25.0461 32.4197 -17.9158
25.0187 32.4233 -17.9336
25.074 32.4205 -17.8943
23.5022 33.1842 -18.3807
23.5189 33.1912 -18.4197
23.4942 33.2018 -18.4419
23.4684 33.2047 -18.4276
23.4195 33.2278 -18.4585
23.3686 33.246 -18.5022
23.4502 33.2256 -18.5106
23.4784 33.2166 -18.4643
24.4703 32.7014 -17.977
24.4342 32.6736 -17.9575
24.5047 32.7335 -17.985
24.5034 32.6931 -17.9356
24.5338 32.7582 -17.9814
24.5325 32.7227 -17.9437
24.5582 32.7575 -17.9482
24.584 32.7494 -17.9184
24.565 32.7149 -17.9155
24.6274 32.7559 -17.9206
24.6042 32.7097 -17.8987
24.6536 32.7142 -17.8821
24.6779 32.6543 -17.8635
24.7038 32.5892 -17.8508
24.7293 32.5208 -17.8508
24.7847 32.5048 -17.8801
24.7558 32.4557 -17.8538
24.8445 32.4956 -17.9043
24.8111 32.4434 -17.8844
24.8936 32.4904 -17.9416
24.8659 32.442 -17.9118
24.9162 32.4475 -17.9453
24.9471 32.417 -17.9387
24.8982 32.4039 -17.9115
24.994 32.4376 -17.9478
24.9784 32.3993 -17.9246
24.3341 32.7039 -18.0345
25.0287 32.4559 -17.9498
24.277 32.74 -18.0588
24.1447 32.7873 -18.0818
24.3885 32.6859 -17.9949
25.0656 32.3621 -17.8329
23.573 33.1089 -18.2796
23.6413 33.0671 -18.25
23.7338 32.9922 -18.2067
23.8426 32.8739 -18.1569
24.131 32.7564 -18.0292
24.1977 32.7393 -18.0167
24.2598 32.7143 -18.0096
24.3508 32.6789 -17.9663
24.3973 32.6551 -17.9338
24.4415 32.6385 -17.9107
24.5027 32.6563 -17.8926
23.2824 33.2707 -18.4962
28.8284 32.0101 -14.2843
24.6206 32.6635 -17.8633
24.643 32.6026 -17.8459
24.6688 32.5395 -17.8274
24.6966 32.4717 -17.8285
24.7233 32.4097 -17.8325
24.7791 32.3963 -17.8589
24.8407 32.3861 -17.8836
24.9347 32.379 -17.9076
24.8905 32.3588 -17.8864
24.969 32.3654 -17.8955
25.0087 32.3912 -17.9071
25.0388 32.3884 -17.8871
25.0672 32.3918 -17.8635
24.5367 32.6817 -17.905
24.4723 32.6645 -17.9248
23.4171 33.1993 -18.3932
23.5004 33.1554 -18.325
24.5737 32.6723 -17.8791
28.8847 32.0035 -14.2968
28.8534 31.9949 -14.2437
28.9369 32.0007 -14.2745
28.8966 31.999 -14.2447
28.984 31.982 -14.2261
28.9238 31.9712 -14.2131
29.0472 31.9676 -14.2426
29.0216 31.9337 -14.1703
29.1132 31.9724 -14.2297
29.0876 31.919 -14.1723
29.156 31.9245 -14.154
29.2288 31.9196 -14.1583
29.2805 31.9701 -14.2037
29.3057 31.9 -14.1204
28.8118 31.9965 -14.2371
28.9546 31.9357 -14.166
24.4754 32.6323 -17.8933
23.6964 33.0374 -18.2319
23.7708 32.9492 -18.1854
23.8155 32.9216 -18.1862
23.8999 32.8628 -18.1619
23.9539 32.8198 -18.1288
24.0167 32.7919 -18.0813
24.0719 32.7706 -18.0383
24.308 32.7005 -18.0011
24.9287 32.3427 -17.8812
25.0333 32.3566 -17.8574
23.3452 33.243 -18.4513
23.2838 33.0826 -18.2795
23.3618 33.0056 -18.2005
23.8607 32.8995 -18.1844
22.2291 33.0955 -18.1148
22.1505 33.2024 -18.1915
22.0815 33.2386 -18.2191
29.7783 30.9639 -12.9306
29.7877 30.9224 -12.8783
29.7831 30.8593 -12.8415
29.8092 30.7998 -12.7672
29.8256 30.7169 -12.6662
29.8413 30.6218 -12.5576
29.8798 30.6594 -12.5315
29.9112 30.6916 -12.4983
29.9344 30.7148 -12.4655
29.5012 31.002 -13.1461
29.5632 31.0105 -13.1276
29.6214 31.0235 -13.1035
29.6816 31.038 -13.0837
29.4666 31.1566 -13.2657
29.5363 31.1594 -13.2625
29.6044 31.1616 -13.2426
29.6659 31.1711 -13.2119
29.6757 31.2449 -13.2512
29.7177 31.1862 -13.1688
29.756 31.1269 -13.0927
29.7788 31.0753 -13.0155
29.8018 31.0197 -12.9505
29.8448 30.941 -12.822
29.8508 30.8359 -12.7378
29.8937 30.8335 -12.6679
29.9276 30.836 -12.6015
29.7349 31.0579 -13.0577
29.7593 31.0101 -12.9903
22.235 33.1531 -18.1762
22.3349 33.046 -18.0857
29.6437 31.1011 -13.1603
29.7069 31.1088 -13.1355
29.4538 31.0756 -13.2115
29.5231 31.0764 -13.2096
29.583 31.091 -13.1843
29.8154 30.8907 -12.8258
29.8711 30.7368 -12.6309
29.9021 30.7563 -12.5806
29.814 30.9614 -12.8879
22.3304 33.1017 -18.1594
22.3316 33.1607 -18.2202
22.2457 33.1985 -18.2437
22.1737 33.2462 -18.2576
22.2634 33.2469 -18.3035
22.3344 33.204 -18.2838
22.4025 33.2114 -18.3118
22.4148 33.1796 -18.261
22.4286 33.125 -18.199
22.741 32.937 -18.1382
22.4492 26.081 -10.9773
22.4662 26.0412 -11.0128
22.3544 26.0508 -11.0477
22.3918 26.0172 -11.0827
22.3415 25.9846 -11.1329
22.2828 26.0104 -11.1085
22.359 25.94 -11.1779
22.2594 25.9674 -11.1707
22.3934 25.8668 -11.2462
22.2741 25.9172 -11.2348
22.361 25.7887 -11.3463
22.2806 25.8536 -11.3052
22.2464 25.7804 -11.3875
19.859 25.8615 -11.7152
19.854 25.7898 -11.7912
19.7661 25.7926 -11.7475
19.941 25.8982 -11.7153
19.9221 25.8346 -11.7713
19.9014 25.9383 -11.6691
19.9636 25.961 -11.6711
19.3652 25.7115 -11.5887
19.479 25.7544 -11.6214
19.5582 25.7347 -11.6807
19.5893 25.8034 -11.6432
19.6748 25.7918 -11.6954
19.7645 25.8595 -11.684
19.6365 25.7051 -11.7719
19.4817 25.6705 -11.714
19.7761 25.7307 -11.8211
19.7114 25.6632 -11.8689
19.863 25.7325 -11.8594
19.8063 25.6837 -11.8934
19.9217 25.7766 -11.8327
19.9659 25.8121 -11.8097
19.9821 25.8623 -11.7641
20.0178 25.8205 -11.8144
20.003 25.9232 -11.7136
20.0401 25.8789 -11.7616
20.0628 25.9395 -11.7102
20.0846 26.0004 -11.6619
20.1574 26.0096 -11.6585
20.2997 26.0478 -11.584
20.2414 25.9934 -11.6511
22.5588 26.0697 -10.9501
22.5534 26.1083 -10.9069
22.5588 26.1544 -10.8638
22.4515 26.1253 -10.9421
22.4702 26.1837 -10.9127
22.3577 26.1497 -10.9768
22.3811 26.191 -10.9268
22.269 26.1654 -10.9891
19.6813 25.8571 -11.6468
22.2523 26.3094 -10.9395
22.2906 26.3528 -10.9197
22.2946 26.2821 -10.9238
22.2118 26.268 -10.9779
22.345 26.2575 -10.9077
22.2515 26.2364 -10.961
22.3103 26.2132 -10.9535
22.2009 26.1911 -11.0012
19.6725 25.5924 -11.939
19.7644 25.6288 -11.9435
19.8379 25.6445 -11.9594
19.88 25.6833 -11.9257
19.9378 25.7202 -11.9008
20.0592 25.7726 -11.8722
20.1243 25.7316 -11.9264
20.0773 25.8334 -11.8116
20.124 25.7949 -11.8566
20.1307 25.848 -11.8018
20.0979 25.8901 -11.7583
20.1513 25.892 -11.7588
20.1922 25.937 -11.7149
20.1993 25.8723 -11.7789
20.2817 25.9027 -11.7421
20.2374 25.819 -11.8356
20.748 26.1303 -11.4094
20.7485 26.0752 -11.4704
20.6161 26.1153 -11.4507
20.6218 26.0315 -11.5405
20.4889 26.0956 -11.4954
20.462 26.0395 -11.56
20.5099 25.9828 -11.6156
20.4122 25.9919 -11.6223
20.1442 25.6655 -12.0082
20.1731 25.8254 -11.8275
20.1634 25.8584 -11.7925
20.3195 25.8055 -11.8495
20.3767 25.9344 -11.694
20.3745 25.861 -11.7803
20.3279 25.9871 -11.6431
22.1894 25.8975 -11.2858
22.1192 25.8796 -11.3273
22.0975 25.9111 -11.2895
22.0127 25.9319 -11.2803
22.1459 25.9456 -11.2302
22.156 25.9929 -11.1553
22.0176 25.9945 -11.2407
22.0449 26.0448 -11.1705
22.0259 25.7751 -11.4659
22.1392 25.7822 -11.4286
22.0881 25.8264 -11.3841
22.1845 25.8394 -11.3466
22.1038 26.1058 -11.1164
22.2119 26.0508 -11.082
19.9881 25.7659 -11.8643
20.1248 25.946 -11.7085
19.5945 25.6147 -11.8606
21.8776 25.954 -11.3074
21.7086 25.9597 -11.3566
22.016 25.8932 -11.3218
21.941 25.8534 -11.3789
21.9074 25.8962 -11.3406
21.7676 25.9026 -11.3865
22.0734 25.8897 -11.3176
22.0413 25.8619 -11.3535
21.9109 25.7695 -11.5042
21.8653 25.8065 -11.4578
21.9824 25.8163 -11.4207
21.794 25.7617 -11.5474
20.3736 26.0326 -11.5843
22.1517 26.1472 -11.0546
22.2392 26.1182 -11.0448
22.3407 26.094 -11.011
21.6264 26.0099 -11.3357
21.8202 25.8529 -11.4195
21.3155 25.7423 -11.7294
21.4449 25.7383 -11.6739
21.3732 25.8015 -11.6318
21.4886 25.7915 -11.5847
21.5567 25.7584 -11.6104
21.5599 25.8043 -11.5676
21.4206 26.0818 -11.3398
21.3962 26.0256 -11.3922
21.2898 26.0691 -11.3845
21.2682 26.0004 -11.4572
21.393 25.9671 -11.4442
21.2499 25.9195 -11.5287
21.4208 25.9027 -11.4874
21.3152 25.8551 -11.5809
21.458 25.8531 -11.5448
21.5689 25.8372 -11.5264
21.0382 26.0196 -11.4864
21.1594 26.0381 -11.4456
21.1294 25.9742 -11.5147
21.0801 25.9033 -11.5973
21.2465 25.8005 -11.6742
21.1757 25.8524 -11.6308
20.5507 25.6859 -11.9773
20.6604 25.6804 -11.9687
20.5838 25.7713 -11.8632
20.6967 25.776 -11.8386
20.829 25.7798 -11.8088
20.9651 25.77 -11.792
20.9062 25.8822 -11.6626
21.0538 25.8277 -11.6951
20.9908 25.9607 -11.5535
21.0618 26.0769 -11.4306
20.7326 25.8687 -11.7139
20.6071 25.8568 -11.7512
20.3375 25.5978 -12.1163
20.4004 25.6399 -12.052
20.4514 25.7009 -11.9692
20.4888 25.7712 -11.8766
20.51 25.8441 -11.7828
20.8703 25.9753 -11.558
20.9294 26.0123 -11.5071
20.9543 26.0592 -11.4576
20.8611 26.0142 -11.5148
18.5727 26.7117 -11.3452
18.597 26.74 -11.4168
25.3323 25.1845 -10.1749
25.2408 25.1155 -10.29
25.3757 25.0713 -10.2734
25.3083 24.9694 -10.3862
25.4499 25.0252 -10.2829
25.4018 24.9954 -10.328
25.4989 25.0829 -10.1746
25.526 24.9856 -10.28
25.6301 25.0048 -10.2247
25.623 24.92 -10.3272
25.7243 24.9948 -10.1711
25.7999 24.9295 -10.2127
25.7242 24.9231 -10.2663
25.8142 24.8398 -10.2932
25.877 24.8693 -10.2288
25.9356 24.7594 -10.3247
26.0484 24.7532 -10.2768
26.1212 24.7338 -10.2129
25.6479 25.0672 -10.1184
25.7308 25.0425 -10.0972
25.7885 24.9898 -10.1279
25.8407 24.9372 -10.1632
25.8976 24.9274 -10.1607
25.9631 24.848 -10.2255
26.0277 24.8329 -10.1842
18.4212 27.0107 -11.5381
18.5061 26.9263 -11.5389
18.4711 26.9294 -11.4962
18.4411 28.111 -12.1219
18.365 28.1019 -12.1034
18.3105 28.0601 -12.0937
18.1412 28.1108 -12.159
18.2097 28.0659 -12.1052
18.1255 28.0557 -12.1331
18.3486 27.1616 -11.6785
18.4059 27.147 -11.6816
18.4088 27.0908 -11.6423
18.3033 27.1868 -11.7315
18.3532 27.1856 -11.7225
18.2951 27.2162 -11.7713
18.2943 27.2635 -11.796
18.3534 27.2138 -11.7561
18.2354 27.3111 -11.8471
18.2966 27.2972 -11.8178
18.2592 27.322 -11.8742
18.302 27.3117 -11.8417
18.3121 27.3202 -11.8646
18.2485 27.3601 -11.9289
18.3422 27.3557 -11.8914
18.2464 27.4328 -11.9604
18.3364 27.4221 -11.9358
18.2443 27.4961 -11.9944
18.3469 27.4762 -11.9965
18.2599 27.5646 -12.0116
18.3493 27.5505 -11.9892
18.1927 27.6634 -12.0464
18.2852 27.6316 -12.0229
18.1381 27.7642 -12.0668
18.2316 27.7239 -12.0537
18.1067 27.8463 -12.0964
18.1781 27.8165 -12.072
18.1281 27.9073 -12.0893
18.1864 27.9798 -12.0803
18.2202 27.8786 -12.0361
18.2895 27.9994 -12.0682
18.2261 28.1468 -12.1468
18.3709 27.0823 -11.5914
18.4595 27.014 -11.5844
18.5554 26.8355 -11.488
18.5023 26.8485 -11.4506
18.5438 26.9256 -11.5715
18.5906 26.8351 -11.5243
18.6421 26.7404 -11.4684
18.5001 27.0071 -11.6217
18.28 28.717 -12.6656
18.2262 28.6896 -12.6276
18.1723 28.6913 -12.6238
18.217 28.5894 -12.5583
18.2012 28.5059 -12.4728
18.2549 28.4477 -12.3939
17.9917 27.5743 -11.9879
17.9448 27.6964 -12.0596
18.0072 27.6044 -12.0102
17.9653 27.7389 -12.0893
17.9193 28.1136 -12.2432
17.9522 28.2591 -12.323
17.9375 28.2202 -12.2919
17.9964 28.3057 -12.3179
18.012 28.2488 -12.2992
18.1118 28.1685 -12.197
18.0749 28.1185 -12.1965
18.1007 28.0868 -12.1733
18.0859 27.9914 -12.1371
18.3267 28.1707 -12.153
18.3243 27.1411 -11.646
18.2776 27.1851 -11.7043
18.2459 27.2345 -11.7589
18.2294 27.2724 -11.8118
18.1637 27.606 -12.0286
18.0951 27.7199 -12.0619
18.0561 27.8252 -12.1026
18.0486 27.9189 -12.1211
18.2296 28.7633 -12.6902
18.2801 28.7887 -12.7355
18.2277 28.8228 -12.7611
18.2761 28.8568 -12.8063
18.2555 28.9058 -12.882
18.2202 28.9474 -12.9498
18.2399 29.0205 -13.0155
18.2556 29.0821 -13.0868
18.0634 28.3344 -12.3105
18.0661 28.2816 -12.2612
18.2 28.3803 -12.3036
18.2182 28.3082 -12.2427
18.1359 28.357 -12.3049
18.1467 28.2865 -12.2631
18.0773 27.3652 -11.8239
18.2594 28.3945 -12.3156
18.1805 28.4614 -12.3854
18.0421 27.4948 -11.9545
18.0336 27.4641 -11.9179
18.1497 28.5683 -12.536
18.2752 27.0548 -11.43
18.2297 27.1178 -11.4801
18.1124 27.2913 -11.7626
26.1795 24.8702 -9.95232
26.1399 24.9376 -9.90884
26.1021 24.9074 -9.97808
26.0654 24.9948 -9.92035
26.0356 24.9405 -10.0024
25.9895 25.0117 -9.97478
25.9492 25.0118 -10.0084
25.9303 25.0618 -9.96175
25.8175 25.1677 -9.94147
25.9184 25.1288 -9.91785
25.8685 25.1165 -9.98432
25.8996 25.034 -10.0192
25.9888 24.9623 -10.0382
18.4281 26.9266 -11.456
18.0583 28.2221 -12.2414
18.0309 28.1685 -12.2271
18.1341 28.2319 -12.2056
18.2299 28.2353 -12.1999
18.0039 28.108 -12.2208
18.0569 28.0688 -12.1706
17.9789 28.0191 -12.1797
18.3833 27.001 -11.4777
18.1604 27.332 -11.8686
18.1767 27.3697 -11.9165
18.1638 27.4437 -11.9709
18.1416 27.5421 -12.0037
18.3203 27.0814 -11.5269
18.2901 27.1409 -11.6005
18.2151 27.1887 -11.6159
18.2445 27.1824 -11.6666
18.1997 27.2332 -11.7331
18.1579 27.2946 -11.8098
18.0849 27.5381 -11.9866
18.1031 27.4629 -11.9553
18.0654 27.6681 -12.0662
17.991 27.802 -12.1059
17.9736 27.9046 -12.1511
26.015 25.2331 -9.76469
26.0694 25.1766 -9.74414
25.9955 25.2034 -9.79367
26.1172 25.1296 -9.7409
26.0357 25.1536 -9.78348
26.1586 25.0776 -9.73345
26.0671 25.102 -9.79682
26.1282 25.046 -9.78768
25.8407 24.9918 -10.1046
25.7826 25.0531 -10.0626
25.8947 24.9843 -10.087
25.9527 24.9106 -10.1381
25.9985 24.9026 -10.1028
26.0636 24.835 -10.123
26.1431 24.7909 -10.1229
25.7918 25.1357 -10.0096
25.8469 25.0599 -10.0456
25.9443 24.9709 -10.0653
26.0776 24.8611 -10.0533
18.0913 27.3795 -11.872
18.0968 27.4061 -11.9217
18.0485 27.5352 -11.9748
17.9098 27.9147 -12.1361
17.9611 28.1685 -12.2594
17.9915 28.2115 -12.2665
26.0305 24.9029 -10.0652
17.9725 28.2332 -12.3017
18.0343 27.6314 -12.0326
18.1644 27.2398 -11.6814
26.1235 24.9802 -9.87351
25.9476 25.1572 -9.86814
25.9938 25.0689 -9.91842
18.2 28.9117 -12.8718
18.1763 28.9989 -12.9895
18.1848 29.0836 -13.0584
18.1634 29.1693 -13.1165
18.2293 28.8764 -12.8188
18.1812 28.7503 -12.6635
17.9831 28.3711 -12.3639
18.053 28.4055 -12.3599
18.1193 28.4285 -12.3697
18.1363 28.5249 -12.4805
18.1404 28.6477 -12.5962
19.3161 25.7636 -11.5047
19.2891 25.7181 -11.529
19.3412 25.803 -11.4834
19.4217 25.8438 -11.5079
19.4173 25.8074 -11.5348
19.481 25.8888 -11.5149
19.4089 25.8694 -11.4831
19.5177 25.8627 -11.5541
19.6148 25.9046 -11.5767
19.602 25.858 -11.6047
19.6641 25.9263 -11.585
19.6744 25.9017 -11.606
19.7067 25.944 -11.5937
19.7862 25.9737 -11.6035
19.7448 25.9128 -11.6328
19.3966 25.7611 -11.5625
19.8256 25.9241 -11.6556
19.5044 25.8086 -11.5889
22.4933 25.9978 -11.0488
22.4271 25.968 -11.1156
22.4669 25.9126 -11.1616
22.3337 26.3291 -10.8991
22.6609 26.0913 -10.8794
22.8672 26.1733 -10.6956
22.788 26.2073 -10.7101
22.8952 26.2363 -10.6572
22.377 26.3046 -10.8711
22.4096 26.2409 -10.8927
22.6611 26.1311 -10.8316
22.8157 26.2613 -10.6835
22.5775 25.8809 -11.1191
22.5314 25.9434 -11.0822
22.6553 25.9246 -11.0401
22.6004 25.7831 -11.2353
22.7036 25.8608 -11.0855
22.6251 25.8358 -11.1651
23.0115 26.1569 -10.6265
22.9528 26.187 -10.6368
22.9473 26.1331 -10.6656
22.9744 26.0972 -10.7055
22.8602 26.1126 -10.7249
22.868 26.0716 -10.7726
22.7604 26.0999 -10.7973
22.8628 26.0211 -10.8207
22.7604 26.0574 -10.8443
22.7498 26.0115 -10.8933
22.66 26.0108 -10.9551
22.66 26.0484 -10.9199
22.7186 25.9671 -10.9587
22.5999 25.978 -11.0086
22.716 25.7883 -11.1518
19.2449 25.7668 -11.4483
19.3584 25.8355 -11.4746
19.4492 25.9042 -11.4947
19.5642 25.9218 -11.5424
19.6455 25.9468 -11.5657
23.0585 26.2824 -10.5691
22.9941 26.2334 -10.591
22.4984 26.3826 -10.798
22.4117 26.3528 -10.849
22.4625 26.3286 -10.8245
22.5059 26.3098 -10.812
22.4968 26.2664 -10.8239
22.5861 26.2663 -10.7932
22.4874 26.2273 -10.8681
22.6714 26.2593 -10.7589
22.5762 26.2166 -10.8369
22.7533 26.2958 -10.7022
22.7418 26.2476 -10.7179
22.8264 26.3062 -10.6739
22.781 26.2772 -10.6959
22.8899 26.2939 -10.638
22.9671 26.2852 -10.6039
23.3938 25.9213 -10.5939
23.5187 25.8991 -10.5417
23.4192 25.867 -10.6328
23.4761 25.8197 -10.6773
23.3356 25.841 -10.7509
23.3799 25.7652 -10.8268
23.2287 25.8086 -10.8708
23.511 25.7107 -10.7997
23.4032 25.6988 -10.9054
23.5795 25.6652 -10.8064
23.4881 25.6606 -10.877
23.6771 25.6241 -10.788
19.0045 25.8669 -11.2189
18.9991 25.8245 -11.2273
19.0555 25.8998 -11.2486
19.0548 25.8707 -11.2636
19.1014 25.9444 -11.2769
19.1077 25.9119 -11.2926
19.1697 25.9587 -11.3176
19.244 25.98 -11.3712
19.1666 25.9197 -11.328
19.3333 26.0291 -11.4147
19.301 25.9687 -11.4033
22.4315 26.2821 -10.853
22.6768 26.1943 -10.7822
22.7652 26.1487 -10.7514
22.5722 26.0315 -10.9883
22.5262 25.8558 -11.2134
23.6381 25.9137 -10.4547
23.6412 25.8555 -10.5096
23.5339 25.8541 -10.5865
23.5696 25.7597 -10.7005
19.2959 26.053 -11.3979
19.2213 26.0182 -11.3523
19.1492 25.9902 -11.3046
19.0076 25.8996 -11.2042
19.0401 25.9343 -11.2444
23.65 25.696 -10.7278
23.9571 25.5251 -10.7219
24.0361 25.4509 -10.7563
23.7802 25.6387 -10.6908
23.8947 25.5919 -10.6775
23.6248 25.8051 -10.5901
22.9709 25.9872 -10.8058
22.8461 25.9712 -10.8876
22.8129 25.9084 -10.9786
22.8411 25.8279 -11.0548
22.8548 25.7464 -11.1522
19.2852 25.8118 -11.4431
19.3388 25.8539 -11.4523
19.3949 25.8935 -11.468
19.4494 25.9313 -11.4852
19.5104 25.9343 -11.5101
19.6047 25.9831 -11.5288
19.2597 25.8369 -11.4135
19.1771 25.7783 -11.3911
19.1769 25.8246 -11.3659
19.2619 25.8734 -11.3969
19.331 25.8817 -11.4327
19.3355 25.9184 -11.4266
19.3923 25.9233 -11.4573
19.4037 25.9588 -11.4526
19.4444 25.9556 -11.4743
19.5058 25.9701 -11.496
19.0772 25.7651 -11.3184
23.0842 25.8979 -10.846
22.9601 25.9313 -10.875
23.0795 25.9508 -10.783
22.9659 25.8695 -10.9486
22.9881 25.8059 -11.0255
23.0128 25.7311 -11.0862
23.0558 25.6798 -11.1379
23.1709 25.6917 -11.0635
23.1075 25.637 -11.1832
23.1926 25.9757 -10.7046
19.1055 25.8217 -11.3107
20.8575 26.0466 -11.4823
20.7853 26.0185 -11.524
20.3015 25.6713 -12.0127
20.3576 25.7229 -11.9472
20.4043 25.783 -11.871
20.5183 25.9159 -11.6933
20.6207 25.9399 -11.647
20.7541 25.9559 -11.603
20.2374 25.6356 -12.0604
21.5202 26.047 -11.3364
21.4942 25.9983 -11.3819
20.8594 26.0941 -11.4344
20.8719 26.1508 -11.3965
20.4405 25.8936 -11.7326
20.4409 25.8333 -11.8057
20.2682 25.7449 -11.9183
20.4469 25.9486 -11.6661
21.6886 25.8534 -11.4716
21.745 25.8088 -11.5071
21.631 25.8074 -11.5477
21.5938 25.898 -11.4536
21.5393 25.955 -11.4075
20.2089 25.7001 -11.9697
20.188 25.7677 -11.8908
21.6707 25.7582 -11.5985
23.2123 25.8769 -10.812
23.3054 25.9002 -10.7019
23.1 25.8395 -10.9116
23.216 25.7416 -10.952
23.1191 25.7841 -10.9856
23.2916 25.7094 -10.9785
23.285 25.9503 -10.6617
23.7711 25.7214 -10.6013
23.9899 25.5682 -10.6484
24.0587 25.5012 -10.6749
23.124 25.7346 -11.0484
19.1843 26.0487 -11.3378
19.12 26.0101 -11.2814
19.0803 25.9703 -11.2703
19.0281 25.9629 -11.2319
19.0022 25.9324 -11.2061
19.0667 25.9903 -11.2495
19.1337 26.0512 -11.2918
19.0851 26.0227 -11.2475
23.7841 25.8533 -10.4236
23.7729 25.7943 -10.4995
23.8881 25.6391 -10.6159
23.9399 25.6031 -10.6281
19.0731 25.8368 -11.2631
19.1133 25.8812 -11.2893
19.2194 25.9207 -11.3661
19.1483 25.8719 -11.3179
19.2787 25.9171 -11.3927
19.3544 25.9619 -11.4258
19.4307 26.002 -11.4492
19.1955 25.8709 -11.361
23.1954 25.931 -10.7573
18.4952 27.5352 -11.9369
18.4607 27.5977 -11.9615
18.439 27.7999 -12.0078
18.4217 27.6703 -12.0025
18.7911 26.6051 -11.4549
18.7734 26.7 -11.5116
18.677 26.8128 -11.5676
18.6388 26.9103 -11.6107
18.8297 26.4009 -11.3179
18.774 26.3433 -11.2376
18.7495 26.4484 -11.2778
18.8623 26.4725 -11.3898
18.9075 26.3454 -11.3337
18.6879 26.3959 -11.176
18.6619 26.4914 -11.2129
24.7034 25.5567 -10.2236
24.7779 25.4616 -10.2733
24.9322 25.2481 -10.3428
24.8234 25.3299 -10.3208
24.9383 25.1234 -10.4527
24.8559 25.2078 -10.397
25.1118 24.7832 -10.6627
25.1814 24.7965 -10.6167
25.1815 24.7089 -10.7009
25.2635 24.7527 -10.6139
25.4072 24.7104 -10.6083
25.2739 24.655 -10.7183
25.5731 24.7205 -10.5208
25.7052 24.7381 -10.4451
25.7042 24.639 -10.5256
25.0177 25.1396 -10.3943
25.0024 25.012 -10.5202
25.0841 25.01 -10.4646
25.0569 24.8921 -10.5965
25.1362 24.8845 -10.5447
18.7061 26.3041 -11.1395
18.6315 26.2599 -11.0341
18.7834 26.254 -11.1889
18.7164 26.2318 -11.1111
19.0328 26.2165 -11.3297
18.9766 26.2808 -11.3381
18.8575 26.2052 -11.2055
18.7701 26.1785 -11.1224
18.9189 26.2417 -11.2853
18.9254 26.1641 -11.2396
18.9792 26.21 -11.2895
24.6001 25.6766 -10.1493
24.4912 25.6841 -10.1795
25.3417 24.4989 -10.8458
25.2486 24.5766 -10.8196
24.7045 25.4082 -10.3562
24.5721 25.4881 -10.3792
24.6577 25.5168 -10.2894
24.5327 25.5729 -10.3105
24.6069 25.583 -10.2432
24.5033 25.6362 -10.2385
24.6069 25.625 -10.1933
25.1877 24.6446 -10.7888
25.1295 24.6018 -10.8592
25.1086 24.6918 -10.7706
25.0277 24.6821 -10.8375
24.9743 24.8938 -10.6441
24.9473 24.7891 -10.7647
24.8856 24.8929 -10.6776
18.5534 26.5444 -11.1371
25.0335 24.7788 -10.716
24.7714 25.2921 -10.4078
24.6796 25.3352 -10.4486
24.7919 25.1835 -10.4805
24.7241 25.2525 -10.4972
24.7892 25.0811 -10.5716
24.7173 25.1489 -10.5613
24.8631 25.1027 -10.5094
24.84 24.9953 -10.6089
24.917 24.9972 -10.5604
18.8512 26.292 -11.2681
25.3874 24.5881 -10.7347
26.1108 25.0081 -9.83946
26.0569 25.0572 -9.85493
26.1496 24.9777 -9.83537
25.9906 25.1071 -9.8566
25.9931 25.1417 -9.82118
25.9719 25.1779 -9.81593
25.9626 25.1678 -9.83863
18.0585 29.3771 -13.2957
18.1132 29.3359 -13.2752
18.0562 29.2779 -13.2474
18.1614 29.2869 -13.2361
18.1087 29.2558 -13.2026
18.0481 29.231 -13.1522
18.107 29.1987 -13.1235
18.0536 29.0762 -13.0372
18.1127 29.1177 -13.0746
18.1188 29.0372 -13.0171
18.0483 29.1493 -13.0972
18.0593 28.996 -12.9838
18.1243 28.9765 -12.945
18.0739 28.9529 -12.8853
18.14 28.9185 -12.868
18.0998 28.8778 -12.7669
18.1756 28.8147 -12.7229
18.1338 28.794 -12.6806
17.8344 28.3463 -12.4246
17.9047 28.4005 -12.4181
17.8897 28.4758 -12.4765
17.9763 28.4263 -12.4384
17.959 28.5054 -12.5063
18.0401 28.4713 -12.4393
18.0177 28.5585 -12.5334
18.094 28.5042 -12.4474
18.0843 28.5665 -12.5236
18.0449 28.6435 -12.5897
18.1006 28.6226 -12.5589
18.0206 28.7397 -12.6681
18.0843 28.6963 -12.6284
18.0783 28.7912 -12.6829
18.1251 28.7307 -12.6431
18.1782 28.868 -12.8006
17.9693 28.6701 -12.6249
18.0136 28.8472 -12.7406
18.1005 29.4233 -13.3504
18.0058 29.3223 -13.2868
26.1398 24.9755 -9.85895
18.5789 26.1965 -10.9311
18.7205 26.1087 -11.0369
18.8331 26.0227 -11.0598
18.9147 26.0469 -11.1466
18.8912 25.9851 -11.0932
18.9978 26.0667 -11.2087
18.9661 26.0025 -11.1746
19.1713 26.1982 -11.3974
19.1832 26.1349 -11.3733
19.1378 26.1559 -11.3481
18.9532 26.1044 -11.2134
19.0381 26.1145 -11.2567
19.0716 26.1578 -11.3189
19.1031 26.1156 -11.3013
19.1477 26.1142 -11.3333
24.4139 25.3915 -10.5764
24.3423 25.405 -10.6129
24.3739 25.4496 -10.5277
24.3411 25.3447 -10.6696
24.1841 25.7775 -10.2721
24.0743 25.7718 -10.3276
24.2167 25.6958 -10.3105
24.0656 25.727 -10.3934
24.2353 25.6318 -10.3868
24.0865 25.6524 -10.4634
24.2181 25.5706 -10.4714
24.0909 25.5951 -10.5338
24.2828 25.4903 -10.5156
24.1766 25.5188 -10.548
24.2859 25.4312 -10.591
24.8747 24.6117 -10.968
24.8134 24.7268 -10.9006
24.7482 24.8326 -10.8356
24.7141 24.941 -10.7517
24.6306 24.9893 -10.7578
24.3973 25.5411 -10.4212
24.4881 25.4504 -10.4837
24.5019 25.3649 -10.5341
24.5838 25.3215 -10.5058
24.5785 25.2627 -10.5758
24.6517 25.2181 -10.5777
24.6284 25.108 -10.6654
24.3936 25.6494 -10.3245
24.3549 25.7116 -10.2391
24.5965 25.4028 -10.4482
24.6447 25.2782 -10.509
24.7113 25.0436 -10.6508
24.923 24.6951 -10.8791
24.8508 24.8064 -10.796
24.8048 24.9156 -10.7223
24.7746 24.9965 -10.6552
18.6813 26.1829 -11.0294
19.0067 26.1616 -11.268
19.098 26.2243 -11.3801
18.841 26.1053 -11.1347
17.9309 29.1511 -13.0815
17.9501 29.0847 -13.0307
17.8631 29.1685 -13.1168
17.9165 29.2243 -13.1749
17.8432 29.232 -13.1985
17.9044 29.3683 -13.3051
17.941 29.3053 -13.2533
17.8918 29.4345 -13.3592
17.9336 29.4332 -13.3447
17.9173 29.4711 -13.3638
17.9493 29.4912 -13.3857
17.9841 29.5188 -13.3934
17.9797 29.4539 -13.3595
18.0216 29.5578 -13.4206
18.0235 29.4896 -13.3714
18.0693 29.6037 -13.4502
18.069 29.5132 -13.3881
18.0957 29.6805 -13.5053
18.1419 29.5922 -13.445
18.0278 29.6949 -13.5183
18.0571 29.746 -13.5735
18.1047 29.7165 -13.5597
17.9428 28.8948 -12.804
25.962 25.4053 -9.75838
25.9956 25.3423 -9.7393
26.0286 25.2727 -9.73176
26.1404 25.2393 -9.68561
26.0986 25.2072 -9.7074
26.2156 25.214 -9.65457
26.1932 25.1851 -9.67808
26.1526 25.1543 -9.69409
26.2485 25.1341 -9.65263
26.1976 25.1051 -9.67898
26.2888 25.0782 -9.62408
26.2352 25.048 -9.66628
26.3187 25.027 -9.6143
18.127 29.5084 -13.3901
17.9254 28.6042 -12.5728
17.866 28.5517 -12.5458
17.9326 28.7899 -12.712
18.0117 28.9194 -12.8401
18.006 28.9894 -12.9287
17.9981 29.0432 -13.0077
17.9925 29.1129 -13.0617
17.9851 29.1871 -13.1243
17.9916 29.2558 -13.2042
17.9638 29.3796 -13.3144
18.0168 29.4073 -13.3382
18.055 29.439 -13.361
18.1489 29.656 -13.5086
18.1524 28.7447 -12.6505
18.173 28.9524 -12.9236
18.1478 29.2235 -13.1737
18.1162 28.5687 -12.5246
18.6272 26.5833 -11.2439
18.7056 26.5524 -11.3106
18.7798 26.5402 -11.3704
18.7211 26.6627 -11.4535
18.7155 26.7299 -11.5058
18.6271 26.8278 -11.5526
18.5522 27.005 -11.637
18.5229 27.0801 -11.6711
18.4175 27.1987 -11.7311
18.452 27.1428 -11.6929
18.4447 27.2308 -11.7589
18.4674 27.2685 -11.7867
18.59 26.922 -11.5921
18.4243 27.5457 -11.9575
18.3762 27.6122 -12.0006
18.3241 27.6944 -12.0211
18.3777 27.7521 -12.0189
18.3323 27.838 -12.0277
18.4033 27.8761 -12.0176
18.4621 27.5062 -11.9177
25.3424 24.8337 -10.501
25.4688 24.811 -10.4687
25.5977 24.8144 -10.4125
25.2311 24.8696 -10.5169
25.432 25.0018 -10.3106
25.454 24.9745 -10.3281
25.5104 24.9035 -10.3696
25.7184 24.8325 -10.3589
25.8155 24.7529 -10.3817
18.3667 28.006 -12.0536
25.1872 25.0037 -10.4264
24.2717 25.38 -10.6724
24.2215 25.4609 -10.5796
23.9818 25.796 -10.3731
23.9065 25.7897 -10.4214
23.9312 25.7344 -10.4879
23.9601 25.6598 -10.5416
23.9904 25.6008 -10.588
24.0779 25.5429 -10.5988
24.1461 25.4749 -10.6221
18.3995 27.1803 -11.7138
18.3903 27.2959 -11.8257
18.6637 26.7576 -11.5041
25.4089 24.9125 -10.3952
18.2756 27.7866 -12.0319
18.378 27.9488 -12.031
18.6972 26.6459 -11.3935
18.5816 26.656 -11.2726
18.6472 26.6489 -11.3325
25.8897 24.684 -10.4082
18.2985 27.9204 -12.0433
18.4714 27.0802 -11.6626
18.359 27.249 -11.7806
18.3488 27.2842 -11.8157
23.9114 25.8255 -10.3794
23.952 25.8134 -10.364
19.0358 26.0354 -11.2316
19.09 26.0545 -11.2654
19.1215 26.0835 -11.2989
19.1692 26.0899 -11.3382
19.2245 26.1117 -11.3749
19.026 25.9928 -11.2177
18.9854 25.9577 -11.1847
19.0702 26.0805 -11.2538
28.7413 27.016 -9.56765
28.6763 26.9625 -9.55458
28.7509 26.9944 -9.50059
28.7186 26.9507 -9.51435
28.7358 26.9145 -9.42446
28.7044 26.9181 -9.46949
28.7779 26.8999 -9.34562
28.6801 26.8166 -9.34978
28.7984 26.8751 -9.26608
28.7092 26.805 -9.29232
28.7966 27.3646 -9.88979
28.8004 27.2812 -9.77972
28.8338 27.1484 -9.58616
28.7816 27.0882 -9.56925
28.8766 27.1019 -9.51267
28.8007 27.0483 -9.49441
28.8859 27.21 -9.60203
28.9174 27.1915 -9.51749
28.9135 27.0991 -9.40895
28.9414 27.0476 -9.29285
28.8567 26.9821 -9.32465
28.9528 27.0206 -9.17369
28.8777 26.9461 -9.22836
28.9352 27.2696 -9.6103
28.9718 27.2672 -9.53907
28.9703 27.2155 -9.44594
28.9908 27.1549 -9.35488
29.0079 27.1197 -9.2525
28.8535 27.2472 -9.70162
18.4125 31.7877 -16.8868
18.4904 31.8253 -16.904
18.4747 31.8525 -16.9705
18.5355 31.864 -16.9548
17.7751 31.2475 -16.4246
18.3276 31.7149 -16.8164
28.8414 26.9954 -9.4213
17.7008 31.2125 -16.3463
17.793 31.1501 -16.3218
17.8578 31.2229 -16.4295
17.8886 31.1949 -16.3421
17.8908 31.2863 -16.5056
17.9262 31.2607 -16.4439
17.9448 31.3151 -16.5201
17.9912 31.3479 -16.5366
17.9728 31.3386 -16.4743
18.0174 31.3889 -16.5282
18.0245 31.382 -16.5866
18.0554 31.4328 -16.5894
18.0538 31.4277 -16.5326
18.1554 31.4696 -16.448
18.0339 31.3778 -16.376
18.0772 31.4523 -16.4969
18.0099 31.3901 -16.4604
17.68 31.1218 -16.2391
17.7474 31.0658 -16.1967
17.8389 31.1268 -16.2285
17.8839 31.2151 -16.2403
17.951 31.298 -16.366
17.9652 31.276 -16.2385
18.2637 31.6393 -16.755
18.229 31.5692 -16.6218
18.2048 31.5726 -16.7082
18.1498 31.5175 -16.5868
18.0886 31.4806 -16.5879
18.1324 31.5372 -16.6719
28.6526 26.9109 -9.51107
28.5748 26.8375 -9.51236
28.6011 26.8894 -9.55402
28.6881 26.9145 -9.49072
28.6446 26.868 -9.48201
28.5591 26.7927 -9.47415
28.6402 26.841 -9.44322
28.5417 26.7467 -9.43764
28.6204 26.7897 -9.39851
28.5072 26.6854 -9.39832
28.5782 26.7145 -9.35144
28.6343 26.7355 -9.31529
28.5062 26.8045 -9.55688
28.4409 26.7962 -9.59415
17.6533 31.034 -16.1365
17.6367 30.9622 -16.0458
17.7101 31.0055 -16.0937
17.6885 30.9611 -16.0014
17.7484 31.0226 -16.0369
17.7871 31.0681 -16.1285
17.8114 31.1039 -16.0689
17.8737 31.1981 -16.1243
17.8471 31.1406 -16.0146
17.9654 31.243 -16.0655
17.8838 31.1351 -15.9371
17.973 31.3434 -16.586
18.0495 31.427 -16.6539
18.0839 31.4865 -16.6556
18.5332 31.8367 -16.9165
18.0037 31.387 -16.6465
18.0361 31.4344 -16.7098
18.0622 31.4898 -16.7671
18.0834 31.4714 -16.718
18.1135 31.5297 -16.735
28.4778 26.7497 -9.51586
28.4634 26.7054 -9.4784
28.4413 26.6522 -9.4471
28.3994 26.5769 -9.41793
28.3972 26.798 -9.63157
28.4259 26.859 -9.65813
28.021 26.4798 -9.69286
28.0646 26.4635 -9.66078
27.9981 26.4254 -9.67754
28.0605 26.4215 -9.63877
28.0292 26.369 -9.60578
27.9764 26.3768 -9.64629
28.0554 26.3493 -9.55869
27.9894 26.3068 -9.58833
27.9803 26.2706 -9.55172
27.899 26.1951 -9.57519
27.9312 26.1945 -9.52787
27.9415 26.4382 -9.71548
27.9713 26.492 -9.72163
28.0429 26.5369 -9.70935
17.6037 30.7833 -15.5722
17.568 30.7704 -15.5286
17.6416 30.7856 -15.5353
17.5989 30.7727 -15.504
17.6914 30.7821 -15.4791
17.6234 30.7641 -15.4465
17.7546 30.8352 -15.5158
17.7517 30.8099 -15.424
17.7961 30.8632 -15.4658
17.8201 30.852 -15.403
17.7743 30.808 -15.3406
17.5648 30.8265 -15.7214
17.6383 30.8175 -15.6247
17.6051 30.8073 -15.6491
17.6964 30.8312 -15.5944
17.5975 30.8231 -15.7168
17.5823 30.8429 -15.7581
27.9556 26.3271 -9.62041
27.9275 26.2719 -9.61123
27.8915 26.4659 -9.74977
27.8512 26.395 -9.74053
27.904 26.3728 -9.69372
27.904 26.3253 -9.65689
17.7633 30.8937 -15.6036
17.8159 30.8917 -15.5368
17.8419 31.0371 -15.7578
17.8461 31.088 -15.8881
17.8053 31.0573 -15.8467
17.8213 31.0748 -15.9265
17.7561 31.0171 -15.893
17.7157 30.9881 -15.9512
17.7028 30.9508 -15.867
28.2208 26.3731 -9.41658
28.1835 26.3832 -9.47711
28.2932 26.475 -9.4463
28.3551 26.7956 -9.66388
28.3279 26.7491 -9.64658
28.2605 26.6923 -9.65324
28.3464 26.7282 -9.61693
28.2681 26.6478 -9.61306
28.3877 26.7071 -9.56784
28.2926 26.6016 -9.57101
28.389 26.6531 -9.52655
28.3906 26.6238 -9.49073
28.3076 26.5705 -9.51577
28.3476 26.5625 -9.47092
28.2525 26.4789 -9.50351
17.5678 30.9126 -15.9126
17.6168 30.9008 -15.8925
17.5742 30.8816 -15.8542
17.6223 30.9251 -15.964
17.6655 30.9372 -15.9214
17.6551 30.906 -15.847
17.8274 30.9367 -15.6081
28.1104 26.4205 -9.58778
28.097 26.5222 -9.65884
28.1241 26.4795 -9.61984
27.978 26.1937 -9.47603
17.6666 30.8615 -15.6969
17.7207 30.9061 -15.6925
17.6285 30.8367 -15.7073
17.6091 30.8513 -15.7675
17.5809 30.8613 -15.8003
17.7953 30.9554 -15.6868
28.1489 26.61 -9.67429
28.0547 26.3 -9.50655
28.1503 26.4043 -9.53422
28.196 26.5523 -9.62551
28.2047 26.501 -9.56336
17.6162 30.8697 -15.8295
17.6384 30.8783 -15.773
17.6789 30.9217 -15.7774
17.7449 30.9853 -15.788
17.8436 31.1374 -16.1544
17.7732 31.0607 -15.9809
26.0143 33.1676 -17.603
25.9156 33.1693 -17.6364
25.9676 33.2168 -17.6418
25.9295 33.2494 -17.6742
26.0456 33.2321 -17.6153
26.0948 33.203 -17.5604
28.3402 32.6684 -15.618
28.4069 32.6501 -15.5743
28.4127 32.6384 -15.4884
28.4797 32.6399 -15.5136
28.4945 32.6066 -15.4325
28.5305 32.637 -15.5368
28.5594 32.6257 -15.4599
28.5971 32.6482 -15.508
28.6805 32.6636 -15.4668
28.6484 32.6158 -15.4113
28.7349 32.6965 -15.4859
28.7694 32.6615 -15.3855
28.718 32.7292 -15.5642
28.6677 32.7077 -15.5569
28.8035 32.6985 -15.4215
28.1727 32.7735 -15.7394
28.2555 32.7208 -15.6714
28.5017 32.5967 -15.3396
28.4111 32.5813 -15.3355
28.597 32.5873 -15.3556
28.1277 32.7975 -15.7729
28.0762 32.807 -15.7731
26.1692 33.1888 -17.5079
26.0651 33.1161 -17.5147
26.2381 33.1994 -17.4501
26.1795 33.1345 -17.4446
26.2927 33.2012 -17.3958
26.345 33.1887 -17.3377
26.4 33.1945 -17.2725
26.4768 33.1823 -17.2412
25.8974 33.2101 -17.6705
28.1608 32.7933 -15.7731
28.6929 32.591 -15.3053
28.8435 32.6615 -15.3112
28.8094 32.6184 -15.2762
28.7672 32.587 -15.2451
28.7331 32.6208 -15.3501
28.9148 32.6559 -15.234
28.9961 32.638 -15.1532
28.0853 32.8411 -15.8122
28.2286 32.7601 -15.7207
28.1933 32.7939 -15.7717
26.5422 33.1673 -17.2488
28.1475 32.9621 -16.0299
28.0872 32.9535 -15.9986
28.0769 32.9742 -16.0413
26.5212 33.2192 -17.282
26.5524 33.1993 -17.279
28.5056 32.7379 -15.7589
28.5607 32.6932 -15.6692
28.4864 32.6795 -15.6883
28.3642 32.7534 -15.7801
28.4272 32.7427 -15.7709
28.3933 32.6882 -15.686
28.6347 32.7649 -15.6772
28.5967 32.8036 -15.7523
28.5744 32.7481 -15.7195
28.6174 32.7206 -15.6361
28.0268 32.991 -16.0581
28.1199 32.9772 -16.0659
28.0705 32.9838 -16.0737
28.1834 32.9309 -15.9813
28.1188 32.9183 -15.943
28.2322 32.8701 -15.9191
28.1596 32.872 -15.883
28.3088 32.8197 -15.8589
28.2428 32.8225 -15.8493
28.3426 32.7858 -15.8251
28.3094 32.7818 -15.8079
28.3712 32.7944 -15.8352
28.1446 32.8213 -15.8005
25.9416 33.2927 -17.6911
25.994 33.2713 -17.6513
26.0994 33.2589 -17.5808
26.1603 33.2501 -17.5544
26.2256 33.2511 -17.5097
26.5859 33.1846 -17.2744
27.0388 33.3504 -17.4774
26.976 33.3478 -17.4515
27.1108 33.3182 -17.4292
27.044 33.3255 -17.403
26.714 33.0507 -17.1367
28.4178 33.1087 -16.1137
28.3425 33.1269 -16.1818
28.2735 33.1469 -16.2581
27.8718 33.1018 -16.5764
27.7952 33.0715 -16.5908
27.7866 33.0986 -16.6549
27.9287 33.0926 -16.5045
27.8627 33.0733 -16.536
27.9541 33.0853 -16.4329
27.8845 33.0689 -16.4783
28.0038 33.1153 -16.4568
28.0241 33.0948 -16.3848
28.0788 33.1289 -16.4001
28.0891 33.0934 -16.3327
28.1481 33.1269 -16.3355
28.1467 33.0832 -16.273
28.2098 33.1121 -16.2614
28.1985 33.0541 -16.2115
28.2787 33.07 -16.181
27.2809 33.3464 -17.2893
27.1981 33.3193 -17.3702
27.7729 33.1493 -16.7119
27.6878 33.0997 -16.7348
27.5976 33.1038 -16.8139
27.6821 33.1522 -16.8039
27.6331 33.1979 -16.8857
27.5823 33.151 -16.8715
27.5484 33.1966 -16.926
27.4533 33.3478 -17.1196
27.3777 33.3141 -17.1508
27.452 33.3043 -17.0753
27.3921 33.2631 -17.1108
27.459 33.2523 -17.049
27.5189 33.282 -17.0053
27.5046 33.2342 -16.9814
27.5841 33.2415 -16.9502
28.3629 33.042 -16.1114
27.2963 33.3166 -17.2228
27.3151 33.2752 -17.1706
27.3998 33.2213 -17.0608
27.4501 33.2198 -17.009
27.4802 33.1911 -16.9597
27.5145 33.1616 -16.9116
27.5161 33.1218 -16.8737
27.8991 33.0569 -16.4135
27.9641 33.0714 -16.3682
28.0275 33.0666 -16.3277
28.08 33.0628 -16.2785
28.1247 33.0486 -16.2249
27.1232 33.2913 -17.3462
27.216 33.3004 -17.29
26.6781 33.1093 -17.2065
28.3227 32.7016 -15.6782
28.2908 32.7118 -15.6731
28.2551 32.7795 -15.7763
28.2836 32.7374 -15.7083
26.3467 33.2595 -17.4073
26.2879 33.2574 -17.4612
26.3303 33.3139 -17.4793
26.0142 33.3394 -17.6771
26.0607 33.296 -17.6128
26.1053 33.3462 -17.6245
26.1325 33.3032 -17.5835
26.196 33.3045 -17.5537
26.2614 33.3104 -17.52
26.4069 33.3149 -17.4296
26.4083 33.2527 -17.3556
26.4754 33.2989 -17.3722
26.466 33.2459 -17.304
26.526 33.2672 -17.3272
26.5763 33.2637 -17.3334
26.5626 33.2281 -17.3021
26.6125 33.2299 -17.3033
26.6469 33.1755 -17.2615
28.6638 32.7395 -15.6135
28.0622 32.9053 -15.9042
28.0361 32.8846 -15.8606
28.1121 32.8688 -15.8435
28.1856 32.8278 -15.8229
28.3254 32.7414 -15.7393
28.5462 32.6571 -15.6001
28.4739 32.6467 -15.6019
28.6133 32.6777 -15.5755
26.1037 33.4046 -17.7315
26.1002 33.385 -17.6761
26.1719 33.3705 -17.6307
26.2217 33.351 -17.5744
26.166 33.3381 -17.593
26.2518 33.3798 -17.6201
26.2965 33.3571 -17.5484
26.3403 33.3752 -17.5947
26.3845 33.3481 -17.5159
26.5032 33.33 -17.4682
26.5539 33.2982 -17.3786
26.6157 33.2924 -17.4237
26.6239 33.2742 -17.351
26.6923 33.2667 -17.3736
26.6766 33.231 -17.3062
26.7503 33.2351 -17.319
26.7222 33.1763 -17.2566
26.7614 33.1098 -17.2004
26.8385 33.1153 -17.1936
26.9045 33.1189 -17.1803
26.9708 33.1297 -17.1687
26.8116 33.1884 -17.2633
26.8886 33.1773 -17.2359
17.4743 30.5562 -14.9345
17.5235 30.5406 -14.8726
17.4496 30.4966 -14.8904
17.5087 30.4758 -14.8436
17.5105 30.4255 -14.799
17.5018 30.602 -14.9662
17.5474 30.599 -14.9112
17.776 30.6509 -14.8408
17.7665 30.6066 -14.7922
17.7017 30.6267 -14.8449
17.569 30.6323 -14.9718
17.6351 30.6346 -14.9093
17.6188 30.5776 -14.8482
17.7177 30.6727 -14.9021
26.4783 33.3782 -17.6089
26.436 33.3683 -17.5632
26.5327 33.3394 -17.5539
26.6145 33.308 -17.5003
26.1913 33.3976 -17.6901
27.6267 33.013 -16.4654
26.889 33.2397 -17.2975
26.8285 33.2568 -17.3413
26.7672 33.2724 -17.3938
26.6983 33.2844 -17.4499
26.9411 33.1708 -17.2154
27.1922 33.0393 -16.9828
27.2874 33.0601 -16.9969
27.1997 33.0841 -17.0602
27.1168 33.1137 -17.116
26.9476 33.2227 -17.2619
26.9975 33.1943 -17.2221
27.0485 33.1531 -17.1714
27.1298 33.1776 -17.1827
28.102 32.9854 -16.0847
28.3326 32.8487 -15.905
28.5258 32.8023 -15.7984
28.5346 32.9069 -15.8803
28.4954 32.8709 -15.8756
28.4353 32.9141 -15.9535
27.652 33.033 -16.6292
27.6908 33.0278 -16.5654
27.7351 33.0486 -16.5823
27.761 33.0338 -16.5156
27.8302 33.0444 -16.462
27.766 33.0259 -16.4455
27.8344 33.0282 -16.3917
27.9045 33.04 -16.352
27.9629 33.0452 -16.317
28.0112 33.0484 -16.2772
28.0503 33.0423 -16.2325
28.0816 33.0263 -16.1822
28.1132 33.0048 -16.1347
28.1607 33.0166 -16.1729
28.1807 33.0028 -16.1127
28.2321 33.0212 -16.142
28.2406 32.9788 -16.0831
28.3019 32.9998 -16.1005
28.2993 32.9478 -16.0317
28.3728 32.9619 -16.0382
28.3602 32.8991 -15.961
27.3754 33.1155 -16.9869
27.4586 33.1416 -16.9393
27.4168 33.1803 -17.001
27.17 33.2647 -17.2736
27.1998 33.249 -17.2197
27.1421 33.2328 -17.2321
27.2555 33.2445 -17.1725
27.2009 33.2069 -17.1829
27.2689 33.1917 -17.123
27.2042 33.1428 -17.1329
27.2836 33.1275 -17.0645
27.3441 33.1816 -17.0578
27.7055 33.022 -16.5033
26.9721 33.3113 -17.386
26.9597 33.2748 -17.3209
26.9007 33.2901 -17.3634
27.0704 33.2112 -17.2348
27.0911 33.2622 -17.2849
25.5816 33.0432 -17.7169
25.5497 32.9917 -17.6935
25.5422 33.0058 -17.7513
25.5952 33.0192 -17.6628
25.5511 32.9858 -17.632
25.5939 33.0117 -17.6029
25.5876 33.0109 -17.5386
25.545 33.0135 -17.8174
25.5155 32.9504 -17.7844
25.4929 32.889 -17.815
25.4902 32.8844 -17.7485
25.4759 32.8178 -17.7771
25.4528 32.749 -17.7396
25.4455 32.7627 -17.8053
25.2549 32.5704 -17.9161
25.2142 32.5437 -17.9146
25.233 32.567 -17.9553
25.2722 32.5794 -17.8721
25.2329 32.5427 -17.876
25.2904 32.5933 -17.8222
25.247 32.5474 -17.8294
25.313 32.615 -17.7694
25.2665 32.5649 -17.776
25.3321 32.6401 -17.8215
25.3581 32.6649 -17.7702
25.3808 32.6782 -17.8262
25.408 32.7082 -17.781
25.423 32.7165 -17.8373
25.4749 32.814 -17.7091
25.2573 32.5834 -18.0029
25.2794 32.5888 -17.9652
25.3 32.5988 -17.9217
25.3129 32.621 -17.8736
29.0486 32.2219 -14.5666
28.9864 32.1841 -14.5311
28.9335 32.2586 -14.645
29.1262 32.3321 -14.6604
29.1786 32.2997 -14.6055
29.118 32.2847 -14.6182
29.1321 32.3736 -14.6911
29.1744 32.3516 -14.6544
29.2336 32.3297 -14.5916
29.2144 32.3862 -14.6696
29.2715 32.3741 -14.6237
26.783 33.3532 -17.5154
26.7048 33.3128 -17.5157
26.8477 33.341 -17.469
26.776 33.3144 -17.4564
26.91 33.3293 -17.4278
26.8407 33.3025 -17.4084
27.0345 33.29 -17.3383
27.0166 33.2447 -17.2812
27.241 33.2762 -17.2278
29.1756 32.2541 -14.5539
29.1127 32.2457 -14.5627
29.0434 32.2776 -14.6307
27.3281 33.2327 -17.1168
27.8134 33.0582 -16.5268
28.0778 32.9906 -16.1038
28.1319 32.9874 -16.0965
28.1781 32.9736 -16.0711
28.2249 32.9502 -16.0286
28.434 32.8208 -15.8616
25.405 32.6951 -17.8829
25.3583 32.6612 -17.8794
25.3473 32.6364 -17.9346
25.334 32.608 -17.9837
25.4373 32.723 -17.883
25.7737 33.0514 -17.4102
28.8974 32.3415 -14.765
28.9884 32.3286 -14.7137
29.0657 32.3288 -14.6797
29.0343 32.3751 -14.7546
29.0916 32.3688 -14.7157
29.0757 32.4107 -14.7817
29.1188 32.4063 -14.7414
29.148 32.4416 -14.7768
29.1632 32.4 -14.7092
29.2459 32.4354 -14.6937
25.459 32.7529 -17.9106
25.4559 32.7586 -17.8618
25.4765 32.7752 -17.9312
25.4804 32.7909 -17.9028
25.4878 32.8192 -17.8492
25.513 32.8961 -17.8852
25.544 32.9584 -17.9185
25.5219 32.956 -17.8521
25.5593 33.0114 -17.8852
25.5816 33.0752 -17.8515
25.6688 33.1392 -17.7995
25.6263 33.1311 -17.8496
25.6191 33.1082 -17.7914
25.6258 33.0839 -17.735
25.5772 33.0607 -17.7768
25.6369 33.0563 -17.6843
25.6394 33.0401 -17.6278
25.6319 33.0349 -17.566
25.6809 33.0544 -17.5858
25.1715 32.5391 -17.9803
29.0888 32.1682 -14.492
29.1177 32.2079 -14.5154
29.1736 32.2125 -14.5045
29.2329 32.2684 -14.5404
25.1931 32.5403 -17.9492
24.9373 32.812 -18.0293
24.9363 32.7434 -18.0161
25.489 32.884 -17.6837
25.5142 32.9454 -17.7213
25.5105 32.9444 -17.6592
25.3967 32.6971 -17.7196
25.341 32.6461 -17.7146
25.2929 32.5928 -17.7227
27.5336 33.3303 -17.041
27.6051 33.2991 -16.9671
27.6992 33.3095 -16.9321
27.6671 33.261 -16.9006
27.7498 33.2851 -16.8442
27.7131 33.2243 -16.8236
27.794 33.2448 -16.7798
27.7703 33.1956 -16.7594
27.8655 33.2492 -16.7333
27.8226 33.2149 -16.7473
27.9311 33.2282 -16.6683
27.8397 33.1985 -16.7048
27.9963 33.199 -16.5796
27.8802 33.1573 -16.6314
27.9563 33.1395 -16.5355
28.2688 33.2107 -16.3375
28.0497 33.1654 -16.4841
28.2853 33.2623 -16.4191
28.2747 32.9041 -15.9753
28.5567 32.857 -15.8209
17.5144 30.2755 -14.6961
17.5191 30.3283 -14.7281
17.5637 30.3002 -14.6881
17.5928 30.3326 -14.7081
17.5801 30.4267 -14.7632
17.6454 30.4437 -14.7182
17.6183 30.3874 -14.7129
17.3931 30.0643 -14.455
17.4276 30.0781 -14.3762
17.5467 30.3756 -14.7551
17.5561 30.4626 -14.805
17.6186 30.4759 -14.7784
17.5754 30.5146 -14.8209
17.6533 30.5336 -14.7847
17.7032 30.5816 -14.7919
17.7206 30.5431 -14.7348
17.7563 30.5786 -14.7452
17.7813 30.5453 -14.691
17.807 30.5903 -14.7239
17.4618 30.3036 -14.7324
17.4607 30.2537 -14.6748
17.4574 30.2113 -14.601
17.4513 30.1704 -14.4917
27.1817 25.6979 -9.76341
27.0882 25.7582 -9.83459
27.0391 25.8167 -9.86593
27.1439 25.8183 -9.84463
27.2456 26.099 -9.84694
27.1723 26.1097 -9.86712
27.2594 26.0234 -9.86614
27.1863 26.0413 -9.87322
27.265 25.9407 -9.85902
27.187 25.9568 -9.88646
27.2043 25.8778 -9.85689
27.1304 25.8821 -9.87922
27.1663 25.7509 -9.81132
27.2182 25.8116 -9.82072
27.2738 25.8657 -9.83609
27.3332 26.0045 -9.84889
27.3052 26.1652 -9.82621
27.2716 26.2219 -9.84496
27.3413 26.0935 -9.83546
17.7429 30.4987 -14.6779
17.6829 30.4937 -14.7278
17.4628 30.0891 -14.3152
17.493 30.1453 -14.4102
17.5186 30.2144 -14.5651
17.5423 30.1884 -14.4899
17.5146 30.236 -14.641
17.572 30.2568 -14.6572
17.6316 30.289 -14.6606
17.6699 30.3438 -14.6662
17.678 30.4088 -14.6665
17.7001 30.4589 -14.6694
27.9056 26.2848 -9.64146
27.7726 26.4095 -9.79777
27.656 26.34 -9.82154
27.7071 26.3096 -9.78774
27.7811 26.3386 -9.76437
27.7423 26.2785 -9.75991
27.8208 26.3349 -9.72816
27.7809 26.3083 -9.74728
27.8376 26.3066 -9.69161
27.7832 26.281 -9.72768
27.6137 26.0674 -9.7296
27.7672 26.1464 -9.6481
27.7403 26.1741 -9.69068
27.8498 26.2692 -9.66172
27.7891 26.2432 -9.69419
27.6724 26.1495 -9.72632
17.5571 30.7689 -15.4535
17.5829 30.7498 -15.3789
17.6673 30.7728 -15.3524
17.5745 30.7459 -15.2875
17.7328 30.7901 -15.2566
17.805 30.8434 -15.2728
17.8238 30.839 -15.1381
17.5093 30.7062 -15.4645
17.4968 30.6882 -15.3876
17.533 30.7245 -15.4169
17.5326 30.7043 -15.3379
17.6439 30.7604 -15.2315
17.4961 30.6511 -15.3117
17.709 30.7791 -15.171
17.7665 30.7892 -15.1222
17.8064 30.7976 -15.0719
27.7312 26.2233 -9.72963
27.6638 26.2229 -9.76259
27.6234 26.2674 -9.8007
17.571 30.7145 -15.1972
17.5317 30.6793 -15.2547
17.488 30.6295 -15.2318
17.4569 30.5658 -15.0087
17.4595 30.5866 -15.0859
17.4973 30.6237 -15.026
17.5117 30.6394 -15.098
17.5735 30.6655 -15.0383
17.6595 30.6775 -14.9812
17.7169 30.7297 -15.0282
17.7486 30.7143 -14.9605
17.7894 30.7035 -14.8906
27.2785 25.8097 -9.79053
27.3507 26.2365 -9.83541
27.4324 26.2596 -9.82507
27.3891 26.1828 -9.82557
27.4725 26.2083 -9.82651
27.5064 26.1613 -9.80991
27.4292 26.1342 -9.82006
27.5336 26.1113 -9.78442
27.4683 26.088 -9.806
27.4913 26.0408 -9.78982
27.4395 26.0302 -9.80908
27.4398 25.9819 -9.7909
27.3862 25.9872 -9.81523
27.3858 25.9239 -9.7986
27.3299 25.8656 -9.79869
27.4843 26.3296 -9.83602
27.5172 26.2768 -9.83569
27.5498 26.2325 -9.82475
27.5841 26.1864 -9.79701
27.4018 26.0551 -9.82678
27.3284 25.9291 -9.82993
27.2314 25.7536 -9.77976
26.9994 25.7465 -9.83567
27.0319 25.7158 -9.80433
27.0476 25.626 -9.74861
27.1212 26.0668 -9.87884
27.129 26.0045 -9.88454
27.1091 25.9421 -9.89156
27.059 25.8954 -9.88459
27.018 25.6579 -9.78427
26.9636 25.6647 -9.80199
26.9673 25.6 -9.75539
26.9031 25.7058 -9.82603
26.9237 25.7508 -9.85913
26.9835 25.8621 -9.88563
26.9201 25.8039 -9.86706
26.9642 25.7019 -9.8107
27.9012 33.3533 -16.8377
27.7944 33.333 -16.8859
28.0739 33.3443 -16.7198
28.1481 33.3126 -16.6273
27.843 33.3008 -16.7945
27.9525 33.3068 -16.7349
28.0347 33.2737 -16.6377
28.1147 33.232 -16.5289
25.8296 33.1214 -17.6439
25.7413 33.1127 -17.7066
25.7811 33.155 -17.7118
28.8321 32.5264 -15.0741
28.8976 32.5463 -15.0912
28.8918 32.4894 -14.9878
28.9602 32.5191 -15.0062
29.0204 32.491 -14.9236
28.9564 32.4578 -14.9033
29.016 32.557 -15.0277
29.0729 32.5305 -14.9353
25.8708 33.0875 -17.5652
25.8188 33.0782 -17.5292
25.7963 33.08 -17.5947
25.9447 33.1011 -17.5095
25.8751 33.088 -17.5029
25.9981 33.0965 -17.4375
25.91 33.0954 -17.4483
28.81 32.4643 -14.9911
28.7604 32.5085 -15.0804
28.6824 32.4996 -15.1137
28.7227 32.5312 -15.1615
28.6989 32.544 -15.2097
28.6619 32.524 -15.1999
28.5885 32.5133 -15.1747
28.3734 32.5585 -15.304
25.7463 33.0861 -17.6511
28.5042 32.5555 -15.263
28.5885 32.5604 -15.2637
28.6651 32.561 -15.2596
28.7262 32.5611 -15.2215
28.8332 32.5686 -15.1726
28.8804 32.6053 -15.199
28.9482 32.5883 -15.1145
28.7774 32.5527 -15.1542
25.589 32.9118 -18.0756
25.5445 32.8606 -18.0044
25.5782 32.9304 -18.0207
25.4693 32.7158 -18.0424
25.423 32.6578 -18.1016
25.3591 32.6215 -18.06
25.3929 32.6469 -18.009
25.4024 32.6762 -17.9454
25.4427 32.7152 -17.9349
25.473 32.7595 -17.9649
25.5058 32.7996 -17.955
25.512 32.845 -17.9232
25.5437 32.908 -17.9551
25.7215 33.144 -17.7569
25.6757 33.1135 -17.7484
25.6859 33.0852 -17.6981
25.6894 33.0598 -17.6456
25.7365 33.0587 -17.5998
25.7244 33.0503 -17.5397
25.7712 33.062 -17.494
25.8347 33.076 -17.4625
28.8712 32.4157 -14.8813
28.9623 32.3904 -14.8083
29.0216 32.4295 -14.8354
29.0685 32.4702 -14.8454
29.108 32.4403 -14.7977
29.1185 32.4918 -14.8513
25.9443 33.1129 -17.5876
26.189 33.1139 -17.3633
26.0972 33.0983 -17.4059
28.9292 32.1328 -14.4842
29.1663 32.168 -14.4642
29.2337 32.2175 -14.4948
29.2829 32.2807 -14.5185
24.8602 32.6861 -17.9657
24.214 32.887 -18.2406
24.8466 32.7699 -17.9752
25.2006 32.5211 -17.8465
25.1559 32.5121 -17.9419
25.1772 32.5186 -17.9113
25.1966 32.5276 -17.8835
25.7703 33.0601 -17.5542
25.5082 32.7981 -18.0257
28.6264 32.469 -15.0645
28.7179 32.4561 -15.0159
18.0779 31.5676 -16.8896
18.0965 31.5336 -16.8302
18.0426 31.5174 -16.823
18.1064 31.5135 -16.7735
18.1321 31.5639 -16.8182
18.1707 31.5735 -16.776
18.2233 31.637 -16.8252
18.2696 31.717 -16.8719
18.335 31.7849 -16.9283
18.4103 31.8269 -16.9945
18.5435 31.8933 -17.0208
18.4778 31.8788 -17.046
18.187 31.6256 -16.8967
18.1344 31.5827 -16.9034
18.2395 31.6976 -16.9417
18.2862 31.7634 -16.9861
18.3467 31.8198 -17.0303
18.415 31.8602 -17.0747
18.4865 31.9012 -17.1134
18.5617 31.9298 -17.1505
18.5523 31.9174 -17.0885
18.6268 31.9572 -17.1296
18.6835 31.9932 -17.1821
18.6199 31.9708 -17.1875
18.7145 31.9779 -17.1084
18.8085 32.0183 -17.128
