0.535418 0.832626 23.7825
0.603426 0.883789 23.7699
0.914091 1.25854 23.4481
0.95103 1.29811 23.3834
0.97137 1.40522 23.3209
0.898726 1.2016 23.5187
1.00205 1.52621 23.311
1.05557 1.63825 23.3109
1.09428 1.78478 23.2647
0.853219 1.15209 23.586
0.800507 1.10373 23.6407
0.746114 1.05976 23.6843
0.655461 0.942862 23.7566
0.697572 1.01641 23.7361
1.10846 1.94464 23.2342
1.1931 2.18358 23.1456
1.21282 2.2932 23.0814
1.28641 2.41591 22.8737
1.2451 2.44071 23.0384
1.26325 2.49875 22.9641
1.15684 2.10373 23.2125
1.32851 2.69923 22.8164
1.30866 2.59037 22.8871
1.36422 2.81245 22.7619
1.38306 2.92369 22.7113
1.41243 3.03196 22.6693
1.42859 3.14673 22.635
1.45829 3.21662 22.4962
1.48579 3.25908 22.3538
1.51651 3.35998 22.263
1.53539 3.47802 22.1422
1.56148 3.45449 21.9812
1.67195 3.44177 21.6123
1.68883 3.51951 21.4968
1.70895 3.58598 21.3867
1.60869 3.44737 21.8392
1.65214 3.45068 21.7151
1.71474 3.65081 21.2913
1.72239 3.74935 21.2406
1.72552 3.95108 20.9831
1.71129 3.94466 20.9284
1.71299 3.83789 21.1749
1.72233 3.91112 21.1036
1.71642 3.96338 21.0345
1.71886 3.99062 20.8697
1.73129 4.03241 20.8141
1.72417 4.01621 20.7511
1.71408 3.99737 20.6906
1.72993 4.02467 20.64
0.212781 2.8745 18.5131
0.179346 2.85216 18.5357
0.116768 2.84517 18.5093
0.092817 2.86255 18.4461
-0.0737066 2.90388 18.3207
0.0592811 2.88819 18.3739
-0.191685 2.91312 18.2981
-0.285806 2.91442 18.3129
-0.37186 2.90291 18.3472
-0.453666 2.90545 18.3971
-0.539904 2.89988 18.4407
-0.637452 2.8686 18.4711
-0.729827 2.85046 18.5185
-0.784037 2.80919 18.6517
-0.778986 2.77077 18.7058
-0.810205 2.84997 18.5875
-0.83618 2.79333 18.7139
-0.763994 2.42069 19.4807
-0.796108 2.43464 19.5311
-0.820422 2.39926 19.6035
-0.805238 2.35277 19.6666
-0.82503 2.31884 19.7357
-0.863387 2.31705 19.8007
-0.876916 2.28441 19.8859
-0.882724 2.22968 19.937
-0.84279 2.19627 19.9251
-0.892169 2.19675 20.0176
-0.813612 2.65385 19.0444
-0.779391 2.60154 19.107
-0.78852 2.5985 19.1701
-0.811265 2.60961 19.2264
-0.80392 2.56474 19.3078
-0.794494 2.52113 19.389
-0.785414 2.47942 19.4621
-0.903934 2.82873 18.7058
-0.937629 2.81066 18.7793
-0.902732 2.76693 18.8466
-0.878751 2.73037 18.9196
-0.858315 2.70459 18.9968
-1.18374 2.07326 20.3868
-1.16541 2.12014 20.321
-1.23603 2.06345 20.4334
-1.28383 2.00187 20.5591
-1.27397 1.95566 20.639
-1.2882 2.04445 20.4771
-0.943267 2.21753 20.0721
-1.09662 2.21411 20.1846
-1.12982 2.17782 20.2633
-1.32826 1.95051 20.6782
-1.38576 1.97314 20.6291
-1.50474 2.0087 20.5489
-1.54508 1.96678 20.6214
-1.43873 2.01021 20.5611
-1.65216 1.94665 20.6096
-1.67645 1.85433 20.7858
-1.68794 1.78926 20.9211
-1.63577 1.75129 21.0415
-1.61052 1.79264 21.1699
-1.54687 1.84608 21.2136
-1.49688 1.8643 21.2965
-1.77016 1.01462 23.1761
-1.78293 0.913403 23.2545
-1.85522 0.799011 23.3103
-1.95244 0.765294 23.3349
-1.98538 0.653587 23.3611
-2.04214 0.573594 23.4017
-1.98823 0.535005 23.4404
-2.01123 0.518699 23.5167
-1.96748 0.522431 23.5864
-1.85849 0.512029 23.6422
-1.55481 0.481071 23.6706
-1.30375 0.475776 23.6798
-1.29937 0.533367 23.7499
-1.03125 0.513173 23.7758
-0.806716 0.502125 23.7418
-0.852931 0.460516 23.6837
-0.728467 0.496971 23.671
-0.656229 0.505575 23.621
-0.519114 0.539894 23.6103
-0.470618 0.543689 23.5572
-0.534296 0.545294 23.5084
-1.89736 1.11451 23.0959
-1.85157 1.01703 23.1894
-0.431017 0.565614 23.5115
-0.340752 0.600945 23.5067
-0.266409 0.641795 23.4905
-0.176879 0.65909 23.5806
-0.255374 0.620151 23.5432
0.295836 0.723654 23.7657
0.221093 0.716151 23.8022
-0.255215 0.603872 23.6959
-0.255954 0.597809 23.6464
-0.251207 0.604016 23.5941
-0.263959 0.61064 23.7386
-0.19422 0.64976 23.7756
-0.0706413 0.67154 23.7932
0.0442522 0.709197 23.8056
0.147839 0.728368 23.8222
0.309979 0.747829 23.8164
0.389885 0.785116 23.834
0.469232 0.841187 23.8404
0.550519 0.880052 23.8109
0.603353 0.919485 23.7883
0.923309 1.3108 23.4773
0.955412 1.38485 23.3963
0.89019 1.26361 23.5507
0.999313 1.51607 23.3749
1.02847 1.61437 23.3681
1.08019 1.72144 23.3398
1.08419 1.86479 23.3048
0.83554 1.19072 23.6159
0.787934 1.13911 23.6632
0.741798 1.09791 23.7099
0.643303 0.975119 23.7847
0.68887 1.06101 23.7576
1.1169 2.01684 23.2779
1.1882 2.25965 23.1814
1.20902 2.30885 23.1319
1.2335 2.4183 23.1007
1.25259 2.55325 23.0789
1.26314 2.59941 23.024
1.314 2.65686 22.9733
1.14436 2.2073 23.2476
1.34914 2.82581 22.8584
1.33013 2.73664 22.9124
1.3732 2.91575 22.809
1.39063 2.99325 22.7616
1.39963 3.08093 22.7503
1.43156 3.26714 22.6054
1.41442 3.18601 22.7324
1.4773 3.35801 22.446
1.5001 3.50006 22.3122
1.54093 3.65697 22.1848
1.58059 3.59536 22.0265
1.6024 3.58084 21.8627
1.6713 3.58632 21.5788
1.68545 3.64659 21.4294
1.70172 3.70056 21.3238
1.64094 3.55451 21.7312
1.69972 3.81095 21.251
1.72502 4.00564 20.9817
1.73576 3.99882 20.9262
1.70623 3.92326 21.1694
1.72399 3.98187 21.0829
1.70921 4.01112 21.026
1.73689 4.04736 20.8754
1.74491 4.09754 20.8329
1.7492 4.07341 20.7629
1.74256 4.05837 20.6944
0.161178 2.88495 18.4464
0.156378 2.866 18.4897
-0.306633 2.93706 18.2617
-0.395213 2.93257 18.2954
-0.473258 2.9305 18.3391
-0.533342 2.9204 18.3788
-0.622126 2.91009 18.3971
-0.718645 2.91259 18.4505
-0.820243 2.9006 18.5048
-0.8515 2.83078 18.6532
-0.817276 2.79982 18.6755
-0.935637 2.88366 18.5995
-0.811424 2.4874 19.5045
-0.828323 2.46684 19.5625
-0.855779 2.43786 19.6276
-0.837848 2.38214 19.6753
-0.827788 2.34864 19.705
-0.841265 2.36282 19.7413
-0.886187 2.38086 19.7753
-0.892935 2.34739 19.8543
-0.89951 2.31805 19.9247
-0.904297 2.26988 19.9668
-0.903985 2.23557 20.0139
-0.841283 2.67889 19.0731
-0.80552 2.637 19.1066
-0.82641 2.64556 19.1476
-0.862738 2.65543 19.1967
-0.854145 2.61868 19.2794
-0.839928 2.58622 19.3755
-0.824514 2.52613 19.4473
-0.981572 2.84606 18.7127
-0.959284 2.79093 18.8444
-1.00074 2.81929 18.7897
-0.925176 2.77078 18.8963
-0.910221 2.74584 18.9578
-0.893135 2.71823 19.0343
-1.22927 2.10922 20.3576
-1.28106 2.09782 20.4024
-1.33677 2.03713 20.5202
-1.33486 1.99709 20.6037
-1.33156 2.08583 20.4413
-0.95002 2.26131 20.0246
-1.38552 2.02309 20.5477
-1.47647 2.05548 20.476
-1.53716 2.06257 20.445
-1.58575 2.01401 20.5108
-1.42538 2.06119 20.4827
-1.6707 2.01484 20.4436
-1.74002 1.95296 20.4901
-1.79701 1.87109 20.6462
-1.79471 1.76562 20.8712
-1.73441 1.72215 21.0043
-1.66881 1.72089 21.1769
-1.70643 1.69922 21.1018
-1.66439 1.76629 21.2662
-1.62138 1.83096 21.3128
-1.56143 1.86692 21.3032
-1.925 0.896855 23.2562
-2.03486 0.822487 23.2917
-2.04192 0.720645 23.3372
-2.0936 0.63544 23.3559
-2.11425 0.523434 23.4412
-2.14151 0.562405 23.3858
-2.23084 0.457357 23.5003
-2.11814 0.487056 23.5845
-2.02501 0.513953 23.6303
-1.98206 0.546915 23.6786
-1.7804 0.547768 23.7112
-1.57073 0.54961 23.7487
-1.29333 0.581764 23.8215
-1.13068 0.570445 23.8331
-1.46199 0.594446 23.8089
-0.867346 0.545584 23.8493
-0.65644 0.555485 23.7949
-0.602835 0.539676 23.7387
-0.645097 0.518855 23.702
-0.5769 0.523078 23.6611
-0.370562 0.566176 23.605
-0.403612 0.557415 23.6613
-0.346661 0.573769 23.553
-1.97664 1.18154 23.0154
-2.01611 1.07388 23.1389
-1.9485 1.01751 23.1891
0.236355 0.763701 23.8319
-0.371976 0.5809 23.7078
-0.310413 0.622039 23.7683
-0.363598 0.604222 23.7355
-0.267928 0.654874 23.801
-0.152895 0.685804 23.8148
-0.0295646 0.715665 23.8399
0.0869559 0.73314 23.85
0.173005 0.759565 23.8586
0.312534 0.795753 23.8594
0.380239 0.839635 23.8716
0.436259 0.906951 23.8633
0.51057 0.913049 23.8383
0.576131 0.940671 23.81
0.936723 1.37828 23.4944
0.969931 1.42261 23.4391
0.86281 1.28902 23.5915
0.907178 1.38006 23.5373
0.999409 1.53619 23.4138
1.0432 1.65356 23.3977
1.0722 1.78447 23.3697
1.08459 1.92186 23.3395
0.819205 1.2247 23.6406
0.776492 1.17886 23.6815
0.732383 1.152 23.7161
0.613085 1.01233 23.8003
0.633207 1.08545 23.7682
0.686109 1.15087 23.7397
1.10623 2.05985 23.3222
1.2018 2.36812 23.1957
1.2116 2.3941 23.1446
1.24681 2.51256 23.1235
1.26189 2.63438 23.1119
1.26875 2.68558 23.0735
1.30601 2.73291 23.033
1.32931 2.79139 22.9857
1.11527 2.17606 23.3176
1.14298 2.29361 23.2813
1.17728 2.38026 23.2353
1.34394 2.85994 22.9375
1.35869 2.93482 22.888
1.37947 3.01072 22.8317
1.39414 3.11001 22.832
1.41646 3.29181 22.7114
1.4531 3.3797 22.5996
1.39968 3.2174 22.8184
1.47517 3.50033 22.4838
1.50205 3.64436 22.3661
1.58406 3.74628 22.0395
1.53119 3.79646 22.2702
1.57272 3.85507 22.1345
1.60147 3.69937 21.9208
1.61037 3.70957 21.7927
1.63154 3.64742 21.7347
1.66265 3.71591 21.5472
1.67505 3.72944 21.4517
1.64306 3.64955 21.6455
1.69613 3.77053 21.3464
1.69741 3.88791 21.2687
1.74159 4.05055 20.9397
1.72459 4.05108 20.9987
1.70658 3.99711 21.2037
1.71751 4.01902 21.1206
1.72553 4.04056 21.0554
1.73314 4.09802 20.9064
1.77194 4.15882 20.8293
1.77098 4.13009 20.7755
1.75104 4.14748 20.8863
1.76755 4.11306 20.7216
-0.362374 2.97178 18.2106
-0.440357 2.95933 18.2486
-0.518982 2.95846 18.2957
-0.581956 2.9527 18.3462
-0.697687 2.95154 18.3783
-0.804089 2.9516 18.4257
-0.907581 2.94173 18.4673
-1.00897 2.95833 18.5039
-1.05528 2.91582 18.6074
-1.03408 2.87236 18.6775
-0.849085 2.51976 19.5095
-0.881073 2.49923 19.5738
-0.872424 2.41407 19.7016
-0.876305 2.68809 19.1144
-1.04284 2.84074 18.7418
-1.00431 2.80873 18.8676
-0.963239 2.76906 18.9134
-1.05211 2.82131 18.8143
-0.94454 2.75351 18.9931
-1.37746 2.07329 20.4695
-1.36258 2.13116 20.3989
-1.45093 2.09069 20.4058
-1.49625 2.09262 20.3845
-1.54999 2.1102 20.3352
-1.60749 2.07143 20.3884
-1.40903 2.1062 20.4068
-1.68182 2.07186 20.3138
-1.755 2.02101 20.3633
-1.84964 1.95336 20.4414
-1.90031 1.86111 20.5888
-1.93893 1.75797 20.7675
-1.89558 1.67973 20.9765
-1.81033 1.68753 21.0151
-1.7658 1.65605 21.1106
-1.72743 1.66248 21.2126
-1.71205 1.70524 21.3152
-1.68078 1.76124 21.3958
-1.62956 1.80311 21.4692
-2.0327 0.952165 23.2255
-2.12305 0.858549 23.2427
-2.13221 0.731834 23.3038
-2.20395 0.61693 23.3304
-2.24484 0.509779 23.3856
-2.38191 0.467237 23.4185
-2.43284 0.435744 23.5318
-2.29585 0.44837 23.6314
-2.14142 0.528598 23.6497
-2.09557 0.563272 23.732
-1.9245 0.573989 23.739
-1.73409 0.609067 23.7795
-1.29701 0.636457 23.8702
-1.01576 0.619469 23.9221
-1.58321 0.65909 23.8516
-0.807158 0.593888 23.9174
-0.619934 0.607286 23.8693
-0.51294 0.595559 23.8022
-0.531488 0.570106 23.7641
-0.464642 0.570269 23.7333
-0.508782 0.542933 23.7001
-2.0766 1.18654 22.9561
-2.08383 1.10966 23.0663
-2.13567 0.986183 23.1566
0.242174 0.800024 23.8743
-0.385281 0.628996 23.7967
-0.425998 0.60403 23.761
-0.353835 0.65234 23.832
-0.244374 0.687495 23.8372
-0.136487 0.712175 23.8584
-0.045167 0.741978 23.8846
0.0450599 0.749917 23.8773
0.122333 0.765283 23.8816
0.184072 0.795041 23.8909
0.290107 0.864129 23.886
0.354383 0.933625 23.8676
0.407119 0.979068 23.8559
0.470721 0.97544 23.8385
0.543638 0.984945 23.8237
0.949654 1.48137 23.4863
0.968927 1.47 23.4561
0.837287 1.3171 23.6147
0.875704 1.39703 23.5677
0.925739 1.52098 23.5182
0.998063 1.57106 23.4429
1.0334 1.70074 23.423
1.05404 1.83513 23.3965
1.0708 1.96383 23.3774
0.801921 1.25992 23.6615
0.765556 1.21717 23.6899
0.730394 1.22488 23.7058
0.574704 1.05511 23.7981
0.600685 1.117 23.7813
0.642227 1.16657 23.7576
0.685134 1.2515 23.7261
1.08786 2.0762 23.3691
1.2409 2.46967 23.1586
1.2176 2.48724 23.1959
1.24466 2.57208 23.1542
1.23669 2.69039 23.1603
1.27112 2.75347 23.1217
1.29391 2.8034 23.0804
1.31812 2.85124 23.0405
1.32335 2.90636 22.9939
1.0938 2.17122 23.3698
1.11483 2.25722 23.327
1.12932 2.33925 23.2977
1.15414 2.40731 23.2618
1.19147 2.50044 23.2293
1.3363 2.96865 22.9506
1.3659 3.03743 22.904
1.37459 3.14292 22.9039
1.40293 3.32381 22.7906
1.42619 3.37867 22.6991
1.45668 3.47645 22.6336
1.37595 3.26296 22.894
1.46943 3.63959 22.5462
1.50407 3.77583 22.4016
1.5918 3.89977 22.0061
1.60049 3.8047 21.9416
1.55445 3.96025 22.2164
1.51695 3.88848 22.3163
1.58538 4.07908 22.074
1.59877 3.80528 21.838
1.62739 3.8327 21.7004
1.63341 3.73259 21.6869
1.64006 3.68688 21.6722
1.64683 3.72966 21.615
1.66061 3.78964 21.5425
1.6682 3.81417 21.4627
1.68495 3.84948 21.3662
1.69497 3.96678 21.3002
1.72718 4.09683 20.9722
1.72436 4.08911 21.0331
1.70002 4.08897 21.2417
1.71471 4.07881 21.1454
1.7198 4.07256 21.0847
1.73746 4.14583 20.9537
1.76496 4.20022 20.8756
1.78922 4.202 20.83
1.79808 4.18127 20.7869
1.74696 4.19875 20.94
-0.665205 2.98521 18.3102
-0.791125 2.98656 18.3564
-0.875117 2.98541 18.3987
-0.962506 3.00132 18.4106
-1.10281 2.96381 18.5261
-1.13845 2.91063 18.64
-1.09035 2.87809 18.6915
-1.06726 2.86308 18.7186
-1.08684 2.84539 18.7579
-1.04711 2.8098 18.9011
-0.99536 2.78811 18.9492
-1.10339 2.82917 18.8444
-1.39016 2.14979 20.3282
-1.43179 2.13069 20.3371
-1.46669 2.12221 20.3428
-1.49732 2.13503 20.2948
-1.546 2.1662 20.2162
-1.6146 2.11593 20.2656
-1.69045 2.12063 20.1953
-1.75348 2.07084 20.2403
-1.81665 2.02494 20.2801
-1.9086 2.02452 20.2165
-1.99433 1.87456 20.5274
-2.06158 1.76021 20.7408
-2.04957 1.6791 20.8715
-1.99233 1.65179 20.9581
-1.84453 1.60336 21.1165
-1.95464 1.5746 21.1087
-1.77227 1.56729 21.2418
-1.75952 1.61618 21.3719
-1.74526 1.68507 21.4963
-1.67632 1.73619 21.5259
-1.63392 1.75665 21.6036
-2.193 0.860143 23.1951
-2.19096 0.784903 23.252
-2.21407 0.700768 23.266
-2.27714 0.633509 23.2342
-2.29038 0.554729 23.3065
-2.35589 0.511272 23.34
-2.47087 0.540245 23.3375
-2.5483 0.509722 23.4437
-2.61552 0.497469 23.5498
-2.5027 0.48783 23.6512
-2.37965 0.501242 23.6995
-2.25324 0.525742 23.7094
-2.21546 0.567645 23.8089
-1.98165 0.60579 23.8099
-1.80409 0.654598 23.8396
-1.4387 0.723865 23.9236
-1.19389 0.678241 23.9491
-1.01937 0.68628 24.0136
-0.807379 0.6594 23.9805
-1.7635 0.718473 23.8959
-0.713977 0.644743 23.9222
-0.603889 0.675466 23.9446
-0.510369 0.661571 23.897
-0.448294 0.644591 23.8653
-0.461864 0.624966 23.8289
-2.03337 1.25921 22.8165
-2.17686 1.15974 22.8766
-2.19084 1.06563 23.0324
-2.26202 0.908586 23.1285
0.220655 0.840353 23.9022
-0.338824 0.678503 23.8666
-0.238483 0.711942 23.8822
-0.135195 0.735039 23.8963
-0.0665694 0.778361 23.9154
0.0239342 0.778322 23.9039
0.086924 0.775821 23.9004
0.135947 0.799101 23.9024
0.1741 0.828243 23.8971
0.218638 0.915812 23.9027
0.267795 0.990208 23.8904
0.338974 1.05129 23.8706
0.427545 1.0637 23.8477
0.505453 1.05614 23.8205
0.987773 1.61353 23.4742
0.856767 1.41182 23.5969
0.814817 1.34964 23.6355
0.898476 1.50008 23.5623
0.945399 1.62243 23.5424
0.980932 1.67828 23.4997
1.03263 1.7523 23.4588
1.04769 1.88406 23.4327
1.04746 1.99838 23.4116
0.776159 1.29056 23.6771
0.740293 1.31703 23.6947
0.548024 1.1288 23.7936
0.591575 1.18811 23.768
0.633565 1.25598 23.7536
0.670193 1.33532 23.7409
0.704399 1.35462 23.7058
1.06211 2.09652 23.4115
1.21409 2.59341 23.1903
1.20875 2.66575 23.2044
1.22047 2.747 23.205
1.25737 2.80756 23.1677
1.28698 2.86267 23.1275
1.30027 2.9108 23.0847
1.31703 2.95741 23.0468
1.32453 3.0104 23.006
1.0623 2.18366 23.4116
1.08934 2.25098 23.371
1.10858 2.32869 23.3329
1.1173 2.41709 23.2896
1.15248 2.50806 23.2508
1.18552 2.59219 23.2197
1.34864 3.07137 22.9638
1.34954 3.17445 22.9653
1.387 3.37849 22.8434
1.41673 3.42857 22.747
1.44299 3.54402 22.6999
1.34794 3.27263 22.9739
1.3587 3.35275 22.9229
1.43083 3.65565 22.6701
1.44956 3.7372 22.5988
1.47324 3.79587 22.5022
1.50908 3.89895 22.4032
1.58532 4.03417 21.9379
1.60186 3.90778 21.8895
1.56905 4.12433 22.1998
1.53102 4.00723 22.3014
1.57877 4.2634 22.1126
1.59139 4.29254 22.0208
1.60151 4.18741 21.9573
1.61154 3.92128 21.7699
1.63708 3.96586 21.6457
1.64984 3.91509 21.5678
1.6451 3.81126 21.5998
1.6676 3.87381 21.5005
1.67347 3.92237 21.3988
1.68016 4.03791 21.3506
1.72596 4.14065 21.0203
1.71983 4.12267 21.0848
1.66104 4.15417 21.3253
1.68942 4.20516 21.2393
1.69996 4.15613 21.156
1.73171 4.19778 21.012
1.76436 4.25078 20.9251
1.74452 4.25695 21.0047
-0.7988 3.01476 18.2943
-0.895666 3.00457 18.3394
-1.17314 2.96514 18.5453
-1.18878 2.87515 18.7311
-1.132 2.86377 18.7497
-1.20828 2.91849 18.6285
-1.16383 2.8372 18.8277
-1.41669 2.18328 20.2715
-1.3758 2.21584 20.2598
-1.45537 2.16116 20.2815
-1.47874 2.19012 20.217
-1.56737 2.22622 20.1133
-1.62443 2.16919 20.1534
-1.50406 2.24525 20.144
-1.70783 2.18058 20.0761
-1.76589 2.11736 20.1394
-1.8156 2.06777 20.1914
-1.9901 2.14825 19.9477
-2.10074 1.96609 20.2839
-1.83345 2.10234 20.1189
-1.87494 2.13192 20.0281
-2.16629 1.78413 20.6581
-2.12229 1.68354 20.8479
-2.09647 1.58556 21.0529
-1.87509 1.49661 21.2669
-2.0131 1.46504 21.2791
-1.816 1.49534 21.4237
-1.808 1.57911 21.5593
-1.78142 1.64148 21.6561
-1.71642 1.7028 21.6491
-1.65864 1.73752 21.7478
-2.26666 0.766907 23.1965
-2.35364 0.676189 23.1179
-2.37681 0.556777 23.2453
-2.50458 0.597329 23.1893
-2.65717 0.598264 23.3363
-2.71328 0.564861 23.4737
-2.6755 0.554547 23.6496
-2.76466 0.586483 23.5723
-2.60262 0.566081 23.7116
-2.48009 0.559714 23.7442
-2.34659 0.539585 23.7572
-2.28951 0.63519 23.8593
-2.11304 0.654763 23.8475
-2.38591 0.58497 23.8157
-1.93968 0.676983 23.8501
-1.63712 0.784612 23.966
-1.39863 0.796874 23.9854
-1.20975 0.748435 23.9862
-0.837703 0.75128 24.0509
-1.02525 0.784396 24.0254
-0.655026 0.734226 24.0191
-2.01456 0.715956 23.8899
-1.92261 0.797911 23.9377
-0.458265 0.756627 23.9754
-0.453304 0.700748 23.9229
-0.420273 0.683055 23.8855
-2.1081 1.21646 22.7241
-1.97869 1.31998 22.6608
-2.28313 1.063 22.8456
-2.26518 1.0548 22.9503
-2.22684 1.1495 22.762
-2.29743 0.951191 23.0296
-2.30887 0.853615 23.075
-2.29687 0.793049 23.1182
0.173235 0.874582 23.9051
-0.34975 0.701984 23.9038
-0.286411 0.729014 23.9209
-0.206014 0.744037 23.9087
-0.151143 0.761532 23.9215
-0.134375 0.797963 23.937
-0.0699424 0.829227 23.9416
0.00956439 0.816201 23.9297
0.0811495 0.807502 23.9171
0.128867 0.842775 23.9083
0.160495 0.931254 23.9254
0.175534 1.01636 23.9152
0.197281 1.17704 23.8446
0.358966 1.18223 23.8454
0.466022 1.1771 23.8151
0.826148 1.44867 23.6047
0.861629 1.49685 23.5774
0.784069 1.39823 23.6489
0.894039 1.59151 23.5613
0.937095 1.71434 23.5561
0.976282 1.75689 23.5214
1.01028 1.81404 23.4785
1.0254 1.93195 23.4615
1.03406 2.03349 23.454
0.742736 1.40963 23.6737
0.539703 1.23288 23.7926
0.588883 1.2882 23.7767
0.620733 1.34841 23.7406
0.6518 1.40481 23.727
0.685888 1.41663 23.7106
0.727593 1.4318 23.6986
1.02638 2.12358 23.4447
1.19219 2.64163 23.2274
1.19053 2.6791 23.2374
1.18816 2.75105 23.2586
1.22978 2.84429 23.2096
1.2609 2.91096 23.1678
1.29046 2.96387 23.1314
1.31284 3.00847 23.0942
1.32693 3.05444 23.0564
1.33851 3.10874 23.0184
1.02583 2.21074 23.4471
1.05473 2.26496 23.4084
1.08899 2.32505 23.3771
1.10102 2.40301 23.3383
1.12658 2.51107 23.2974
1.16839 2.5993 23.252
1.33055 3.2025 23.0213
1.37309 3.44145 22.8849
1.39826 3.48337 22.8005
1.40594 3.58832 22.7649
1.33406 3.36297 22.9846
1.31665 3.29378 23.0274
1.3446 3.41936 22.9413
1.40373 3.69068 22.738
1.42879 3.74532 22.6662
1.44785 3.78133 22.6237
1.45649 3.82611 22.5732
1.48151 3.9114 22.489
1.51187 4.01912 22.3909
1.60551 4.13527 21.8696
1.603 4.02022 21.8269
1.54008 4.13952 22.29
1.55987 4.26518 22.197
1.57656 4.36979 22.1312
1.58769 4.40867 22.062
1.599 4.44807 21.9812
1.60477 4.33579 21.9354
1.60429 4.24551 21.8889
1.62511 4.03667 21.7162
1.6432 4.0847 21.6057
1.65562 4.0307 21.5274
1.66692 3.98086 21.4549
1.66475 4.09533 21.421
1.71469 4.18754 21.0843
1.67071 4.20986 21.4075
1.6725 4.2635 21.3235
1.68179 4.30456 21.2474
1.69953 4.24246 21.1617
1.71775 4.25978 21.0841
1.77314 4.30728 20.9881
1.72793 4.33614 21.0818
-1.24936 2.88614 18.7101
-1.22738 2.84272 18.8279
-1.26405 2.93374 18.6099
-1.40734 2.24816 20.2068
-1.42955 2.20122 20.2199
-1.44778 2.25755 20.1664
-1.53027 2.29705 20.0623
-1.58147 2.27174 20.0416
-1.63109 2.23086 20.0595
-1.45963 2.32944 20.0771
-1.68375 2.25323 19.9747
-1.7524 2.21524 19.9617
-1.79347 2.15645 20.0419
-2.11949 2.22148 19.7877
-2.12724 2.10038 20.0217
-1.89513 2.19154 19.9297
-1.91552 2.2117 19.8594
-1.94955 2.24142 19.7857
-2.02179 2.30252 19.6632
-2.22206 2.02864 20.1624
-2.26332 1.89384 20.4766
-1.82548 2.19077 19.9443
-2.3176 1.72354 20.8296
-2.20048 1.65779 20.9047
-2.2639 1.56255 21.1236
-2.15665 1.46129 21.2994
-1.9237 1.40497 21.4524
-2.07605 1.35934 21.5006
-1.89496 1.44439 21.6649
-1.86291 1.57833 21.7258
-1.77864 1.65184 21.8303
-2.32249 0.778543 23.0814
-2.3591 0.814561 23.0161
-2.48364 0.707158 23.0144
-2.6837 0.709283 23.1484
-2.81537 0.644799 23.4213
-2.83538 0.694241 23.3019
-2.84953 0.63123 23.5074
-2.82258 0.626708 23.6603
-2.72954 0.628186 23.729
-2.91013 0.639846 23.5774
-2.62259 0.622138 23.7918
-2.50899 0.628328 23.8145
-2.43775 0.662001 23.8669
-2.34486 0.6815 23.911
-2.20049 0.697416 23.8951
-1.53432 0.862025 23.9725
-1.73176 0.886915 23.9595
-1.36933 0.880781 23.9975
-1.19906 0.835238 24.0108
-0.889064 0.825828 24.0421
-0.785114 0.82645 24.0543
-0.677433 0.813953 24.0519
-0.998774 0.873899 24.0328
-0.546876 0.800731 24.0326
-2.12205 0.766356 23.9081
-2.15872 0.861366 23.904
-1.96847 0.938359 23.9085
-0.325664 0.754673 23.9485
-0.374065 0.728532 23.934
-0.447868 0.815496 24.0116
-0.36817 0.809685 23.9946
-0.337424 0.78157 23.9719
-2.05264 1.23931 22.5664
-2.19072 1.13229 22.6248
-1.93106 1.35794 22.4887
-2.30424 1.0583 22.7162
-2.36964 0.960876 22.8073
-2.33862 0.953898 22.9291
0.113533 0.897105 23.9233
-0.242767 0.759071 23.9301
-0.196425 0.760875 23.9218
-0.195216 0.776241 23.9373
-0.205058 0.809632 23.9543
-0.146982 0.833439 23.9693
-0.0985896 0.872873 23.9744
-0.0126644 0.86756 23.9533
0.063638 0.854812 23.9275
0.0941215 0.974105 23.9373
0.0751503 1.09169 23.9174
0.191965 1.38613 23.8264
0.293222 1.32893 23.8187
0.0391724 1.23657 23.9029
0.0902594 1.35923 23.8594
0.39851 1.3114 23.8064
0.48086 1.31507 23.809
0.807137 1.51631 23.6064
0.850658 1.55646 23.5835
0.779665 1.49203 23.6473
0.884373 1.67678 23.5728
0.92296 1.80717 23.5739
0.962892 1.83591 23.5364
0.995238 1.87593 23.5014
1.00172 1.97538 23.4875
0.997464 2.06708 23.4823
0.742777 1.49511 23.6652
0.53869 1.34701 23.7864
0.576772 1.39651 23.7526
0.616006 1.45127 23.7258
0.662619 1.49069 23.7067
0.706033 1.50401 23.6826
0.988279 2.15842 23.4775
1.15629 2.62991 23.2825
1.12891 2.67143 23.3092
1.15744 2.7908 23.2966
1.19205 2.87162 23.2418
1.23315 2.94829 23.206
1.25957 3.01052 23.1654
1.28357 3.05961 23.1277
1.30344 3.09962 23.0925
1.31866 3.14434 23.059
0.988466 2.25446 23.4813
1.02655 2.3034 23.4486
1.06421 2.34674 23.4181
1.09028 2.3923 23.3826
1.10829 2.45903 23.3584
1.12298 2.55577 23.3361
1.29976 3.22619 23.061
1.34741 3.4985 22.9208
1.38168 3.53673 22.8501
1.38552 3.6383 22.8192
1.32165 3.45934 22.9846
1.30372 3.39415 23.0375
1.28603 3.31084 23.074
1.37189 3.74195 22.7844
1.40575 3.79771 22.711
1.43264 3.8319 22.6378
1.44695 3.92435 22.568
1.47523 4.02493 22.4748
1.50836 4.14033 22.3756
1.61769 4.22652 21.8171
1.62306 4.12288 21.7769
1.5385 4.26765 22.2776
1.56175 4.38882 22.1873
1.57953 4.48173 22.1051
1.59422 4.54451 22.0246
1.61894 4.47373 21.8949
1.61478 4.58727 21.9426
1.6175 4.34708 21.8512
1.64373 4.14824 21.6831
1.66024 4.1477 21.5016
1.64445 4.20341 21.5854
1.65491 4.26456 21.4937
1.66376 4.3201 21.4105
1.65898 4.36528 21.3342
1.66998 4.40074 21.2615
1.70967 4.3264 21.1738
1.70435 4.41792 21.1875
-1.30911 2.90279 18.6744
-1.29511 2.85953 18.7824
-1.3194 2.95357 18.5798
-1.40282 2.31853 20.1323
-1.49888 2.36586 19.9854
-1.5574 2.32349 19.9774
-1.61184 2.27991 19.9694
-1.4347 2.40776 19.9774
-1.6424 2.30029 19.8735
-1.71572 2.27307 19.8702
-1.78633 2.24761 19.8649
-2.23604 2.3096 19.6797
-2.1991 2.15378 19.9299
-2.13342 2.38126 19.5289
-1.85598 2.23183 19.8608
-1.8874 2.26327 19.7799
-1.92741 2.29766 19.6847
-1.95594 2.35821 19.5847
-2.00848 2.39176 19.5147
-2.0602 2.38855 19.4975
-2.29089 2.14083 19.9939
-2.34644 2.0052 20.2792
-2.43132 1.86371 20.6017
-2.49107 1.72679 20.9202
-2.40281 1.61173 21.0838
-2.38894 1.49805 21.3267
-2.26963 1.45049 21.3498
-2.20709 1.38456 21.4754
-1.96579 1.33642 21.6127
-2.21242 1.25466 21.6632
-2.05845 1.26136 21.6973
-1.95425 1.29143 21.7582
-1.92323 1.35463 21.8947
-1.88724 1.51039 21.8887
-1.81637 1.5754 21.9977
-2.41947 0.8381 22.8944
-2.62882 0.77013 22.9808
-2.5235 0.790902 22.8531
-2.88779 0.786982 23.1677
-2.77846 0.836688 23.0047
-2.91691 0.697495 23.3911
-2.91164 0.674989 23.4585
-3.00913 0.756725 23.302
-2.96859 0.679995 23.5
-2.96444 0.702007 23.6442
-2.87217 0.708694 23.7259
-2.78246 0.718893 23.8207
-3.04589 0.704461 23.546
-2.60367 0.717674 23.8778
-2.45175 0.756021 23.9237
-2.28184 0.767112 23.9149
-1.50842 0.985023 23.9757
-1.78041 0.999022 23.9297
-1.19502 0.940962 24.0065
-0.88823 0.874421 24.055
-0.805832 0.87491 24.0501
-0.709302 0.877852 24.065
-0.631518 0.871818 24.0559
-0.568209 0.855867 24.0425
-0.988168 0.953354 24.0208
-0.914288 0.914378 24.0298
-0.907762 0.886625 24.0366
-0.474905 0.851976 24.0403
-2.2256 1.04636 23.8824
-2.37109 0.878757 23.9056
-1.93938 1.08061 23.9024
-0.260699 0.779007 23.9586
-0.385564 0.850876 24.0194
-0.299787 0.839409 24.013
-0.280107 0.809649 23.9795
-1.98794 1.2835 22.4305
-2.057 1.19391 22.4564
-2.12362 1.14903 22.5217
-2.19566 1.0657 22.4778
-2.3008 1.02357 22.5696
-1.82432 1.41459 22.4405
-1.84401 1.38307 22.3562
-1.91885 1.34722 22.377
-2.37985 0.948994 22.6594
-2.44073 0.858413 22.75
0.0356731 0.919819 23.9475
-0.224818 0.841256 23.983
-0.18218 0.87471 23.9918
-0.056975 0.931152 23.9679
-0.155032 0.92755 23.9893
-0.0163204 1.01564 23.9486
-0.0344225 1.1446 23.9381
0.199595 1.49258 23.8473
0.258115 1.48175 23.8317
0.139605 1.49931 23.8623
0.352414 1.46311 23.8159
-0.0124256 1.38085 23.9169
-0.0638761 1.27233 23.9436
0.0411704 1.50464 23.8893
0.437467 1.43586 23.8061
0.497652 1.41615 23.7944
0.838028 1.63416 23.5889
0.804575 1.59347 23.6249
0.76643 1.56373 23.6384
0.865354 1.76655 23.5819
0.89017 1.91619 23.5624
0.941932 1.92289 23.538
0.975273 1.92578 23.5128
0.96375 2.00462 23.5047
0.960379 2.09968 23.515
0.732761 1.58896 23.6452
0.536698 1.46589 23.7681
0.587236 1.51899 23.7475
0.633163 1.56694 23.7067
0.693425 1.61611 23.6778
0.955797 2.20114 23.5183
1.08743 2.59212 23.3593
1.10425 2.71442 23.3408
1.12625 2.83935 23.3177
1.1702 2.90534 23.2815
1.19695 2.97761 23.2337
1.23065 3.04948 23.198
1.25476 3.10866 23.158
1.27725 3.14912 23.119
1.29463 3.17166 23.0876
0.947257 2.31075 23.5079
0.984558 2.36302 23.4739
1.02761 2.42098 23.4368
1.07034 2.42404 23.4055
1.08769 2.43322 23.383
1.09312 2.48995 23.3825
1.27523 3.23081 23.1007
1.32753 3.5645 22.9665
1.34846 3.59512 22.8895
1.36379 3.69868 22.8648
1.2909 3.53489 23.0502
1.27127 3.40873 23.0936
1.25668 3.30617 23.1211
1.36054 3.80373 22.8337
1.37686 3.8579 22.7583
1.41782 3.94439 22.6639
1.45216 4.04078 22.5563
1.48073 4.14198 22.4589
1.52086 4.26349 22.3624
1.61943 4.31865 21.759
1.62946 4.2112 21.7426
1.54472 4.39506 22.2612
1.57117 4.51604 22.165
1.58027 4.60994 22.0722
1.60041 4.67469 21.9878
1.62408 4.61235 21.8522
1.62164 4.47668 21.7845
1.61302 4.71509 21.9029
1.63492 4.26413 21.6711
1.64159 4.32507 21.5839
1.64577 4.37836 21.4982
1.65399 4.42309 21.4222
1.65925 4.46155 21.3542
1.68238 4.50197 21.2894
-1.36855 2.92494 18.6234
-1.3695 2.87648 18.7331
-1.33809 2.84598 18.8551
-1.37436 2.97169 18.5365
-1.46328 2.41887 19.8937
-1.52195 2.3768 19.8923
-1.58056 2.33807 19.8831
-1.60456 2.36977 19.7825
-1.67176 2.33324 19.7704
-1.74725 2.31111 19.7759
-1.82078 2.29035 19.7843
-2.20825 2.39043 19.4958
-2.23724 2.37685 19.5141
-2.25866 2.38465 19.4989
-2.31203 2.37908 19.5453
-2.3508 2.26323 19.8239
-2.12031 2.4501 19.3317
-2.17918 2.4322 19.3715
-2.08322 2.43758 19.3949
-1.85605 2.32102 19.7014
-1.88775 2.35443 19.6154
-1.90969 2.39426 19.5333
-1.95975 2.40206 19.5009
-1.98107 2.43282 19.4305
-2.03412 2.43023 19.4151
-2.39333 2.11709 20.0745
-2.49228 2.03105 20.3211
-2.54904 1.91369 20.583
-2.56001 1.82404 20.7662
-2.67705 1.78441 21.0062
-2.55069 1.59274 21.2197
-2.51077 1.46239 21.4335
-2.42821 1.39694 21.526
-2.32092 1.36317 21.5108
-2.41334 1.27428 21.7567
-2.27458 1.16087 21.9331
-2.12966 1.17578 21.8392
-2.02212 1.20563 21.8236
-1.94949 1.22704 21.8935
-1.93881 1.26139 21.9772
-1.92833 1.32197 22.0678
-1.90203 1.41707 22.0153
-1.84182 1.47867 22.0682
-1.77027 1.54398 22.131
-2.66514 0.859626 22.8707
-2.6011 0.89955 22.6917
-3.00971 0.837308 23.1809
-2.97708 0.909499 23.0273
-2.82227 0.968379 22.7837
-2.98266 0.713151 23.4272
-3.07381 0.726849 23.4311
-3.11421 0.858169 23.1685
-3.17363 0.802935 23.3101
-3.11035 0.761233 23.6067
-3.01943 0.77684 23.7077
-2.9383 0.774645 23.7922
-2.91105 0.874972 23.8552
-2.75087 0.806755 23.8842
-3.19533 0.773547 23.459
-2.59971 0.888384 23.8929
-1.70462 1.13466 23.9164
-1.4568 1.14523 23.9449
-1.23603 1.07575 23.9747
-1.06928 1.01504 24.0116
-0.846354 0.909451 24.0393
-0.72982 0.967345 24.0427
-0.624894 0.934888 24.0651
-0.571425 0.899804 24.0564
-0.497131 0.902589 24.038
-0.9237 1.03258 24.0147
-0.858241 0.969416 24.0343
-0.405964 0.897038 24.0397
-2.44602 0.980214 23.8699
-2.41873 1.05401 23.8695
-2.39849 1.13164 23.8656
-2.27172 1.22824 23.8685
-1.96377 1.31215 23.8592
-0.317678 0.883385 24.0267
-0.249417 0.869759 24.0137
-1.93963 1.29617 22.321
-1.99705 1.21436 22.3544
-2.06294 1.15199 22.3885
-2.11517 1.11773 22.4396
-2.13819 1.06411 22.3842
-2.18792 1.00888 22.3345
-2.27885 0.979285 22.4033
-2.39835 0.943169 22.4653
-1.76067 1.42949 22.3355
-1.8029 1.4277 22.2167
-1.87719 1.35859 22.2717
-2.46736 0.891418 22.6086
-0.242983 0.912721 24.0129
-0.127345 0.998376 23.9817
-0.242665 0.985253 23.9953
-0.112439 1.08352 23.9592
-0.123231 1.18607 23.9625
0.20698 1.60282 23.8453
0.304976 1.6312 23.8135
0.111321 1.64834 23.8674
0.408374 1.5949 23.7856
-0.105084 1.39211 23.931
-0.0560434 1.50192 23.9206
-0.153517 1.29536 23.9615
-0.00427987 1.63243 23.8904
0.48345 1.5379 23.7728
0.830677 1.713 23.6131
0.779704 1.6601 23.6264
0.850598 1.84527 23.6024
0.854726 1.96929 23.5928
0.881023 2.05276 23.5646
0.922624 2.02472 23.5302
0.909314 2.13709 23.5332
0.750738 1.71199 23.6483
0.541218 1.6048 23.7461
0.597325 1.64497 23.7108
0.650884 1.6944 23.6796
0.719313 1.76525 23.6757
0.91588 2.25601 23.5527
1.05664 2.51274 23.4012
1.0656 2.64154 23.3928
1.08364 2.78183 23.361
1.13708 2.94695 23.2892
1.09453 2.91364 23.3139
1.16806 3.00027 23.2602
1.19507 3.07764 23.2267
1.22325 3.15502 23.1859
1.25611 3.20746 23.1459
0.894622 2.38206 23.5206
0.930175 2.43724 23.4808
0.980981 2.49756 23.4633
1.02089 2.56651 23.4225
1.31127 3.65712 23.0037
1.336 3.66754 22.9336
1.33302 3.768 22.8977
1.23748 3.50544 23.1121
1.24079 3.61809 23.097
1.26497 3.67817 23.0536
1.23121 3.39037 23.1432
1.22668 3.27181 23.1719
1.3459 3.87309 22.8709
1.36391 3.91331 22.8099
1.3811 3.97751 22.7449
1.4052 4.07591 22.6853
1.43285 4.09124 22.6107
1.45264 4.15688 22.5269
1.4906 4.26056 22.4401
1.52491 4.38912 22.3429
1.62672 4.39439 21.678
1.53898 4.52831 22.2343
1.56415 4.65141 22.1312
1.58134 4.73822 22.0354
1.60538 4.79447 21.9505
1.62261 4.73816 21.8167
1.6306 4.63265 21.7564
1.6291 4.52999 21.6777
1.61301 4.82707 21.869
1.63535 4.44749 21.5879
1.65097 4.48385 21.5066
1.65839 4.51288 21.4379
1.65672 4.54675 21.386
1.67888 4.5909 21.3536
-1.42604 2.94939 18.5593
-1.4327 2.90969 18.6434
-1.45131 2.86817 18.7257
-1.40608 2.84865 18.8239
-1.37212 2.82157 18.9288
-1.42906 2.98979 18.4851
-1.43826 2.47483 19.8105
-1.48443 2.4296 19.8083
-1.54213 2.40007 19.7969
-1.56059 2.44451 19.7028
-1.62454 2.41661 19.6814
-1.69772 2.37875 19.6606
-1.78414 2.34362 19.6949
-2.23119 2.41148 19.4113
-2.26959 2.42432 19.3829
-2.31535 2.42705 19.372
-2.35643 2.43472 19.4449
-2.40459 2.35953 19.6397
-2.48608 2.21736 19.9524
-2.08853 2.49349 19.2129
-2.14461 2.46989 19.2364
-2.06691 2.47538 19.2844
-2.21232 2.46642 19.2743
-2.04339 2.46371 19.3374
-1.82143 2.36407 19.6248
-1.84949 2.39565 19.5578
-1.86668 2.42985 19.4868
-1.92365 2.43048 19.4536
-1.93469 2.46939 19.3729
-1.99602 2.46474 19.3467
-2.64413 2.15979 20.2213
-2.63074 2.01484 20.494
-2.65318 1.90659 20.7152
-2.78193 1.95708 20.8155
-2.88606 1.906 21.0575
-2.82973 1.75184 21.2877
-2.68971 1.6579 21.2968
-2.65875 1.49605 21.529
-2.51968 1.39197 21.6132
-2.50908 1.2222 21.9347
-2.42557 1.13312 22.0492
-2.60553 1.33127 21.8449
-2.32567 1.09418 22.0928
-2.24913 1.05056 22.1072
-2.17299 1.11272 21.9826
-2.05231 1.12723 21.9644
-1.96281 1.18046 21.9857
-1.94774 1.21496 22.0671
-1.94783 1.24492 22.1671
-1.91207 1.30812 22.2065
-1.86989 1.38307 22.1398
-1.73526 1.47561 22.2362
-2.55636 0.985898 22.4806
-2.72555 1.06996 22.5036
-3.05934 1.04659 22.7948
-3.164 0.978383 23.0048
-2.93315 1.15306 22.5418
-3.22755 0.935777 23.1765
-3.28178 0.892113 23.3095
-3.21503 0.834485 23.5459
-3.15136 0.85979 23.6496
-3.05415 0.867968 23.7744
-3.03878 1.04123 23.7629
-2.88496 1.04179 23.8462
-2.78454 0.923095 23.8692
-3.30773 0.890715 23.4293
-2.72883 1.04385 23.8593
-2.54598 1.07598 23.8641
-1.53347 1.31971 23.9097
-1.27852 1.22938 23.9459
-1.11631 1.16549 23.9658
-1.02394 1.09299 23.9832
-0.78603 1.06439 24.0213
-0.650683 1.11782 24.0098
-0.585299 1.0259 24.0241
-0.527564 0.960125 24.0473
-0.429232 0.961784 24.0346
-0.868521 1.13158 23.9999
-0.331512 0.942237 24.028
-2.46443 1.26931 23.8653
-2.25463 1.36475 23.8355
-2.14551 1.53376 23.8234
-1.89645 1.62049 23.841
-1.68033 1.50909 23.8852
-1.95092 1.25077 22.2672
-1.96355 1.17522 22.2595
-2.01804 1.11888 22.3257
-2.08687 1.09571 22.3669
-2.07342 1.04104 22.279
-2.14887 1.00477 22.2345
-2.19934 1.00204 22.2582
-2.24805 0.996929 22.2596
-2.35215 1.01089 22.2394
-2.49926 1.05035 22.2767
-0.196976 1.06212 23.9849
-0.354079 1.01566 24.0082
-0.285017 1.06819 23.9943
-0.175764 1.12933 23.9705
-0.201501 1.20668 23.9685
0.214085 1.85688 23.7929
0.370754 1.79288 23.7441
0.0602102 1.78905 23.8491
0.486618 1.72829 23.7377
-0.184784 1.40717 23.9645
-0.134387 1.48692 23.935
-0.111432 1.5957 23.9165
-0.232909 1.30518 23.9817
-0.0633266 1.76185 23.9037
0.803684 1.78294 23.627
0.823048 1.90345 23.6262
0.819447 1.99534 23.6057
0.839261 2.06922 23.595
0.863856 2.17847 23.5796
0.771689 1.84043 23.6452
0.568115 1.7458 23.7108
0.623505 1.7524 23.6982
0.67016 1.82101 23.6737
0.732486 1.89302 23.6554
0.854664 2.32317 23.5643
1.03549 2.72423 23.3942
1.0592 2.88538 23.3517
1.12086 3.01795 23.2774
1.14539 3.01061 23.2747
1.09825 3.02904 23.3127
1.16183 3.07442 23.2579
1.18402 3.19597 23.2215
0.846535 2.46764 23.5265
0.900418 2.5285 23.5012
0.942075 2.59347 23.4639
0.99037 2.66177 23.4307
1.28243 3.76176 23.0164
1.31085 3.75278 22.9604
1.31509 3.84949 22.9249
1.19674 3.59048 23.1297
1.19484 3.47793 23.1607
1.20229 3.6738 23.1161
1.22931 3.72269 23.0937
1.23553 3.78755 23.0525
1.18952 3.34656 23.1889
1.32459 3.95506 22.8942
1.34892 3.97893 22.8429
1.35713 4.01654 22.7904
1.37208 4.08229 22.7439
1.42137 4.18099 22.6253
1.39617 4.20142 22.6929
1.44477 4.18637 22.5732
1.46117 4.26268 22.5046
1.49188 4.3757 22.4188
1.51109 4.51404 22.3172
1.5398 4.68042 22.2081
1.57747 4.79048 22.0944
1.58824 4.85876 21.9991
1.60443 4.89849 21.9178
1.6234 4.84219 21.7881
1.62643 4.7491 21.7291
1.63821 4.64951 21.6627
1.64747 4.55889 21.5873
1.62281 4.92103 21.8428
1.65494 4.57302 21.508
1.65995 4.579 21.4503
1.6663 4.61552 21.423
1.67798 4.6471 21.3976
1.69466 4.64448 21.345
-1.48136 2.97582 18.4931
-1.49196 2.93962 18.5655
-1.51335 2.91282 18.6489
-1.5358 2.86085 18.7182
-1.47933 2.83752 18.8016
-1.4366 2.82296 18.8999
-1.40257 2.79577 19.0012
-1.47566 3.00483 18.4381
-1.46072 2.48409 19.748
-1.50344 2.46503 19.726
-1.5082 2.50416 19.6428
-1.56436 2.48861 19.6105
-1.62556 2.45676 19.577
-1.69249 2.44044 19.5472
-1.75815 2.39942 19.6069
-2.27455 2.4672 19.2641
-2.33759 2.46563 19.2943
-2.43188 2.47879 19.3828
-2.50159 2.35382 19.6894
-2.61071 2.32685 19.8906
-2.04596 2.52475 19.1214
-2.09986 2.51446 19.1345
-2.02738 2.50637 19.1925
-2.15733 2.51451 19.152
-2.00798 2.48683 19.2658
-2.21825 2.51602 19.1642
-1.79771 2.40401 19.5659
-1.80979 2.43089 19.5056
-1.82514 2.45602 19.4457
-1.87006 2.45424 19.4047
-1.86997 2.50049 19.3181
-1.94374 2.50072 19.2817
-2.74019 2.12605 20.4684
-2.73259 2.30408 20.1221
-2.75531 2.23641 20.3176
-2.72717 2.01277 20.6283
-2.83282 2.09978 20.6521
-2.93174 2.04288 20.8353
-3.03543 2.00337 21.0137
-3.025 1.89797 21.1748
-2.96229 1.82729 21.2682
-2.97853 1.73968 21.446
-2.88597 1.66579 21.5023
-2.77771 1.62835 21.4459
-2.83962 1.55392 21.6411
-2.77125 1.42104 21.8089
-2.58524 1.18291 22.0983
-2.80654 1.28251 22.1686
-2.18504 1.01891 22.1774
-2.15084 1.05514 22.064
-2.08209 1.04131 22.1287
-1.99123 1.1227 22.0683
-1.95688 1.15027 22.1579
-2.63322 1.11801 22.3131
-3.15409 1.19986 22.5714
-3.24178 1.12868 22.8093
-3.29576 1.04774 23.0252
-3.03283 1.28221 22.3495
-3.32076 0.991616 23.1732
-3.37166 1.01331 23.263
-3.24758 0.931081 23.523
-3.19874 0.971351 23.5966
-3.13584 0.957754 23.6884
-3.09677 1.2592 23.6828
-2.95082 1.22709 23.7953
-3.17555 1.09283 23.6028
-2.81214 1.18035 23.8417
-3.3381 1.01121 23.3983
-2.67006 1.20148 23.8537
-1.46565 1.50259 23.9139
-1.36299 1.4235 23.9154
-1.3191 1.34345 23.9405
-1.19183 1.32087 23.9368
-1.09062 1.25943 23.9504
-0.972132 1.19341 23.973
-0.732351 1.19675 24.0024
-0.523319 1.16171 24.0076
-0.578558 1.33836 24.0039
-0.459629 1.05385 24.0148
-0.837368 1.23988 23.98
-2.63686 1.39045 23.8325
-2.39394 1.48069 23.8284
-2.28564 1.67334 23.863
-2.06284 1.72891 23.8506
-1.82606 1.91224 23.8207
-1.66836 1.69361 23.8487
-1.53711 1.60703 23.8841
-1.98603 1.09722 22.2404
-1.99789 1.06503 22.167
-0.240418 1.13099 23.9841
-0.365282 1.10203 23.9948
-0.303914 1.13693 23.9911
-0.275662 1.20819 23.9744
0.0909146 1.95358 23.8161
0.151524 2.11715 23.7849
0.273334 2.16699 23.7616
0.369645 2.03999 23.7437
0.478034 1.95365 23.7371
0.00711087 1.90242 23.8443
0.558831 1.89741 23.7133
-0.266601 1.41054 23.9703
-0.201683 1.52047 23.9381
-0.18554 1.66158 23.9277
-0.311895 1.29268 23.9866
-0.0794897 1.91683 23.8572
-0.163383 1.8185 23.9079
0.781704 1.95405 23.6254
0.792348 2.04869 23.6103
0.80305 2.14075 23.6014
0.807111 2.25931 23.6007
0.626185 1.86543 23.7034
0.690566 1.95095 23.6741
0.747685 2.0083 23.6449
0.806746 2.41066 23.5762
1.01951 2.8503 23.3986
1.04412 3.03204 23.3295
1.13201 3.1349 23.2684
1.08329 3.17776 23.2694
1.14461 3.2806 23.238
0.825608 2.58803 23.5319
0.878725 2.6346 23.5123
0.920454 2.69693 23.4752
0.967535 2.78178 23.4348
1.28472 3.84396 22.9751
1.2488 3.8627 23.0139
1.28751 3.93689 22.9398
1.14986 3.57043 23.175
1.15774 3.67963 23.1396
1.14199 3.43091 23.2015
1.18317 3.75387 23.1213
1.20073 3.81997 23.0931
1.2127 3.90383 23.0559
1.30323 4.05277 22.9046
1.33365 4.06117 22.8558
1.34945 4.07094 22.8135
1.35982 4.09382 22.7816
1.36609 4.13903 22.7592
1.44131 4.26696 22.5602
1.42392 4.28705 22.6039
1.37696 4.30723 22.6972
1.40162 4.34213 22.6226
1.36116 4.19825 22.7547
1.45849 4.35966 22.4856
1.47816 4.4788 22.4016
1.49741 4.61958 22.314
1.51465 4.76825 22.2434
1.54752 4.85001 22.1454
1.56814 4.91935 22.0496
1.58291 4.96071 21.9648
1.598 4.98557 21.8896
1.63358 4.93126 21.7683
1.64243 4.84547 21.7064
1.64143 4.74858 21.6401
1.65186 4.65334 21.5737
1.60472 4.99753 21.8205
1.66683 4.64067 21.493
1.66525 4.6816 21.456
1.68367 4.69824 21.4064
-1.53387 3.0099 18.4264
-1.55107 2.96999 18.4879
-1.57024 2.92705 18.561
-1.59548 2.87695 18.636
-1.56255 2.82357 18.7896
-1.62648 2.81866 18.7138
-1.5072 2.80851 18.8739
-1.46391 2.77903 18.9661
-1.43528 2.75718 19.0669
-1.5057 3.04245 18.3841
-1.46063 2.51996 19.6801
-1.50349 2.54768 19.5699
-1.47055 2.5582 19.6203
-1.55579 2.5231 19.5207
-1.62675 2.50446 19.4846
-1.70299 2.494 19.4629
-1.75531 2.4404 19.5237
-2.28119 2.51702 19.18
-2.34271 2.51614 19.2111
-2.36064 2.56396 19.1348
-2.45178 2.62058 19.1218
-2.53216 2.56105 19.3579
-2.56011 2.44838 19.5906
-2.64393 2.45256 19.7308
-2.71804 2.42453 19.9137
-1.98702 2.55059 19.1081
-2.0081 2.56626 19.0591
-2.05114 2.55768 19.0564
-2.10239 2.55582 19.0631
-1.94924 2.51987 19.1782
-2.16 2.5539 19.0733
-2.2221 2.55325 19.0843
-1.77418 2.48108 19.4524
-1.80598 2.49328 19.3756
-1.7783 2.56108 19.2597
-1.87648 2.53308 19.2187
-2.88253 2.24762 20.468
-2.83111 2.30725 20.2639
-2.8522 2.41859 20.1041
-2.97172 2.1715 20.6755
-3.07321 2.11053 20.8275
-3.17953 2.04897 21.0055
-3.13439 1.93368 21.1764
-3.10643 1.80201 21.3744
-3.07966 1.71488 21.5399
-3.01728 1.61389 21.6814
-2.92665 1.47358 21.8866
-3.05879 1.41766 22.0925
-3.18556 1.34948 22.3243
-3.27329 1.3054 22.4978
-3.27343 1.23021 22.6421
-3.34455 1.27507 22.6892
-3.36176 1.19161 22.8909
-3.38073 1.10134 23.0751
-3.43393 1.13381 23.1377
-3.39911 1.11628 23.2623
-3.26887 1.04096 23.4942
-3.21416 1.26988 23.5374
-3.13706 1.43869 23.5786
-3.0558 1.45078 23.6925
-3.00859 1.36644 23.7525
-2.90246 1.41974 23.7884
-2.81272 1.33552 23.8326
-3.28473 1.16849 23.4604
-2.74594 1.27206 23.8414
-3.34302 1.11982 23.3678
-1.38287 1.6198 23.9008
-1.28099 1.52507 23.9323
-1.21255 1.4186 23.9397
-1.0651 1.37001 23.9525
-0.944579 1.29646 23.9548
-0.73104 1.32148 23.9782
-0.44737 1.29175 23.9934
-0.42269 1.17337 23.9975
-0.678373 1.44347 23.9814
-0.589076 1.53602 23.9686
-0.487019 1.56514 23.9813
-0.422353 1.45505 23.9698
-0.835702 1.3324 23.9776
-2.7546 1.54306 23.8028
-2.53229 1.63915 23.8262
-2.38845 1.80094 23.8375
-2.17615 1.88233 23.84
-2.05729 2.03863 23.7941
-1.93425 2.16417 23.7618
-1.72873 2.16635 23.7677
-1.62106 2.04812 23.7881
-1.55262 1.93176 23.8265
-1.59454 1.8134 23.8554
-1.48871 1.70968 23.8647
-0.346648 1.19288 23.9849
0.0403759 1.99002 23.8378
0.0580261 2.09221 23.814
0.0723317 2.3076 23.7913
0.199086 2.34489 23.7485
0.298935 2.37578 23.7013
0.384626 2.29143 23.6911
0.496434 2.20429 23.6948
0.568853 2.0795 23.7093
-0.00784518 2.0218 23.838
0.638645 2.03105 23.6869
-0.297225 1.54218 23.9512
-0.355553 1.37663 23.9801
-0.266325 1.72364 23.9338
-0.38009 1.26346 23.985
-0.0848368 2.0607 23.8391
-0.15848 1.96168 23.8686
-0.239193 1.87837 23.9122
0.76135 2.09334 23.6209
0.750973 2.17856 23.6172
0.747669 2.32344 23.6247
0.70572 2.07289 23.636
0.762345 2.52123 23.5657
0.983672 3.02154 23.3674
1.02897 3.21681 23.2922
1.08759 3.34844 23.2435
0.797681 2.76419 23.5325
0.860547 2.77667 23.5008
0.899344 2.78479 23.4797
0.936188 2.88899 23.4394
1.2637 3.92695 22.9837
1.22345 3.98218 23.0064
1.25524 4.02915 22.9505
1.09261 3.51691 23.2217
1.09806 3.68928 23.1925
1.12847 3.78706 23.1422
1.16379 3.83784 23.1234
1.16975 3.92467 23.1023
1.17777 4.0677 23.0546
1.27607 4.18248 22.8992
1.31699 4.16631 22.8431
1.34466 4.14826 22.8081
1.35592 4.13024 22.7856
1.35868 4.12254 22.7779
1.44563 4.34859 22.5422
1.43097 4.39255 22.554
1.35575 4.40637 22.6977
1.40009 4.43069 22.623
1.34047 4.2556 22.7695
1.41881 4.43939 22.5661
1.45585 4.44014 22.4821
1.46663 4.55978 22.4078
1.4732 4.69125 22.3367
1.49141 4.82439 22.289
1.52384 4.90842 22.1993
1.54373 4.9954 22.1008
1.57714 5.02591 22.0153
1.57918 5.0453 21.9369
1.5948 5.05638 21.8677
1.61816 5.00733 21.7582
1.62878 4.93552 21.6853
1.64753 4.83535 21.6211
1.65454 4.73523 21.5433
1.60307 5.05635 21.808
1.66391 4.75244 21.4723
-1.58209 3.0489 18.3546
-1.61086 2.99796 18.4054
-1.63217 2.94965 18.4755
-1.65509 2.89536 18.5527
-1.68965 2.83723 18.6353
-1.65316 2.79207 18.7997
-1.58516 2.79621 18.8632
-1.75454 2.76455 18.7481
-1.53451 2.77466 18.9407
-1.50075 2.75009 19.0324
-1.47558 2.72097 19.1282
-1.49764 2.60254 19.5071
-1.4484 2.60152 19.5766
-1.55123 2.56485 19.4372
-1.63345 2.54401 19.3925
-1.72471 2.52044 19.3703
-2.28695 2.55809 19.1026
-2.29184 2.59979 19.0146
-2.35538 2.62816 19.0061
-2.36499 2.73939 18.8769
-2.49999 2.7428 18.9592
-2.58293 2.70121 19.1969
-2.639 2.57794 19.5159
-2.71129 2.52247 19.7318
-2.80046 2.54667 19.8737
-1.91728 2.5642 19.0733
-1.95158 2.59365 19.0222
-1.99272 2.60475 18.9939
-2.04086 2.59469 18.9837
-2.09915 2.59302 18.9898
-1.87948 2.5548 19.1286
-2.16002 2.59568 19.004
-2.22545 2.58983 19.0099
-1.67788 2.62183 19.1917
-1.7531 2.61175 19.1357
-1.82478 2.57102 19.1529
-1.65772 2.57644 19.2931
-3.02355 2.26164 20.5714
-2.9209 2.36062 20.3038
-3.02496 2.34984 20.4337
-2.9387 2.56438 20.0119
-3.02113 2.45924 20.2279
-3.08711 2.20627 20.685
-3.20194 2.18582 20.7841
-3.27716 2.13366 20.9823
-3.26897 2.03656 21.1191
-3.22651 1.96746 21.1819
-3.2223 1.87455 21.3325
-3.21263 1.79222 21.4651
-3.18516 1.70445 21.6483
-3.04611 1.50717 21.8897
-3.13948 1.55995 21.8924
-3.22422 1.48991 22.0973
-3.31182 1.45243 22.2997
-3.35068 1.36469 22.5092
-3.30797 1.29681 22.5994
-3.42771 1.39473 22.5565
-3.43539 1.32612 22.7419
-3.47044 1.26106 22.9491
-3.46579 1.23178 23.1356
-3.41001 1.22193 23.2609
-3.30645 1.33166 23.4001
-3.21548 1.40467 23.4702
-3.21059 1.55205 23.5076
-3.1347 1.66334 23.5823
-3.07941 1.56469 23.6459
-3.00374 1.60394 23.7077
-2.97603 1.50826 23.7603
-2.87218 1.56408 23.7836
-3.3503 1.22504 23.3502
-1.20495 1.64285 23.9026
-1.32586 1.73463 23.8838
-1.05507 1.52651 23.9393
-0.9171 1.40665 23.9604
-0.7875 1.41717 23.975
-0.74734 1.50584 23.9695
-0.672794 1.5686 23.9689
-0.606241 1.65127 23.9616
-0.527383 1.68325 23.9497
-0.431667 1.73916 23.9506
-0.373007 1.6377 23.9482
-2.80481 1.70825 23.7968
-2.67982 1.7407 23.8257
-2.54484 1.85429 23.8331
-2.38045 1.95884 23.8112
-2.24586 2.0712 23.7795
-2.12146 2.17196 23.7624
-1.81385 2.38004 23.7558
-2.0854 2.37515 23.7692
-1.64522 2.31344 23.7422
-1.55273 2.19102 23.7664
-1.46531 2.06474 23.8071
-1.38444 1.94668 23.8507
-1.4388 1.82718 23.8641
-0.0166869 2.17255 23.8142
-0.0422411 2.34311 23.8039
0.0141243 2.51564 23.7645
0.134707 2.54969 23.7466
0.261331 2.56865 23.7063
0.378416 2.53598 23.6692
0.488054 2.46087 23.6528
0.589988 2.24022 23.6601
0.579952 2.3956 23.6419
0.632433 2.17516 23.666
0.68868 2.17618 23.6444
-0.333776 1.80496 23.9342
-0.156497 2.09465 23.8555
-0.0995069 2.20747 23.8345
-0.223087 2.01007 23.8733
-0.302022 1.95064 23.9019
0.702929 2.43845 23.6141
0.674357 2.28539 23.6451
0.723317 2.63925 23.5684
0.940154 3.1018 23.3946
0.985827 3.26519 23.3304
1.03086 3.41127 23.2633
0.73851 2.86726 23.5324
0.798586 3.01309 23.4952
0.851298 2.96991 23.4782
0.897037 2.9447 23.4527
1.23231 4.12433 22.9811
1.03691 3.59695 23.256
1.01076 3.77026 23.221
1.07054 3.85503 23.1761
1.11893 3.90711 23.1391
1.11589 4.02809 23.1168
1.10179 4.15069 23.0939
1.11769 4.23372 23.042
1.18296 4.23359 22.9963
1.28025 4.35438 22.8519
1.30096 4.29866 22.7981
1.22952 4.27668 22.9236
1.43944 4.49753 22.4951
1.40635 4.54731 22.5969
1.30478 4.44886 22.7446
1.35771 4.56701 22.6523
1.42984 4.53106 22.5342
1.44583 4.61388 22.4353
1.45424 4.73903 22.3815
1.45009 4.85949 22.3357
1.48742 4.94663 22.2544
1.51605 5.03084 22.175
1.54229 5.0903 22.0363
1.52012 5.10659 22.0936
1.56878 5.09992 21.9822
1.58572 5.11686 21.9174
1.60928 5.11377 21.8431
1.63133 5.02522 21.7014
1.62205 5.07701 21.7687
1.64881 4.90916 21.6039
1.62757 4.97918 21.639
1.65848 4.82543 21.5421
1.68069 4.82185 21.476
-1.62201 3.07975 18.2716
-1.6672 3.03205 18.3204
-1.70199 2.98863 18.4
-1.71777 2.91817 18.4738
-1.74111 2.86377 18.5565
-1.78396 2.81031 18.6394
-1.73768 2.75819 18.8491
-1.65975 2.76644 18.8713
-1.60603 2.7667 18.9284
-1.86226 2.75368 18.7256
-1.88103 2.69787 18.8268
-1.82445 2.69973 18.8706
-1.57146 2.75195 19.0049
-1.54945 2.72045 19.0913
-1.5318 2.69895 19.1866
-1.45401 2.70973 19.2253
-1.47811 2.63999 19.4336
-1.55258 2.62015 19.3461
-2.22839 2.63247 18.9326
-2.29103 2.65971 18.9162
-2.26758 2.72673 18.8236
-2.28091 2.80127 18.7667
-2.32429 2.86826 18.7001
-2.4529 2.91101 18.7646
-2.58034 2.8643 18.9434
-2.67508 2.83595 19.1482
-2.71794 2.73056 19.3765
-2.76464 2.64301 19.6354
-2.89897 2.66606 19.7892
-1.85531 2.59404 19.0585
-1.86848 2.6393 18.9822
-1.91676 2.64609 18.9305
-1.97021 2.64556 18.9075
-2.03104 2.64469 18.9098
-2.09529 2.63733 18.9218
-1.84437 2.57755 19.1027
-2.16287 2.62847 18.9308
-1.59105 2.65002 19.2397
-1.61094 2.68335 19.1434
-1.67963 2.66282 19.0923
-1.7345 2.63574 19.0363
-1.80318 2.60086 19.0773
-3.13239 2.29918 20.5889
-3.16535 2.43426 20.4236
-3.02847 2.66093 19.9338
-3.0634 2.57489 20.0938
-3.13708 2.57237 20.2318
-3.24762 2.36373 20.6547
-3.30105 2.26101 20.8505
-3.35436 2.19932 21.0036
-3.34077 2.09138 21.143
-3.30702 1.96384 21.3028
-3.29292 1.83123 21.5274
-3.32657 1.73591 21.7974
-3.24772 1.617 21.9024
-3.32572 1.59391 22.0539
-3.38691 1.57366 22.1962
-3.4012 1.49213 22.3758
-3.46643 1.51392 22.4311
-3.48697 1.45876 22.5861
-3.49691 1.39806 22.749
-3.53465 1.43644 22.8337
-3.52207 1.36908 23.0151
-3.47446 1.35103 23.1669
-3.39924 1.34402 23.2806
-3.35187 1.47889 23.3096
-3.27524 1.53174 23.4064
-3.2223 1.77807 23.4748
-3.16249 1.81168 23.5833
-3.10289 1.84721 23.6526
-3.05278 1.71642 23.6801
-2.96056 1.76822 23.747
