24.4702 -4.86602 5.89447
24.5218 -4.90105 5.86272
24.5432 -4.967 5.79424
24.5546 -5.02587 5.74828
24.5882 -5.04867 5.71721
24.6295 -5.07921 5.68375
24.6742 -5.11123 5.65037
24.7273 -5.13744 5.61125
24.7617 -5.18881 5.54248
24.9092 -6.23347 3.18464
24.9716 -6.29119 3.08753
24.9994 -6.33699 2.98547
25.0421 -6.40333 2.8413
25.0313 -6.43857 2.71308
25.0197 -6.47203 2.61893
25.0763 -6.50486 2.57746
25.154 -6.51118 2.55137
25.0973 -6.50594 2.47622
25.046 -6.49672 2.41338
24.9559 -6.51072 2.37593
24.8944 -6.52318 2.35151
24.9092 -6.50689 2.32645
24.9378 -6.47065 2.29233
24.9105 -6.428 2.22927
24.8721 -6.37673 2.15635
24.7313 -6.41821 2.11128
24.6248 -6.43058 2.09078
24.593 -6.45877 2.13584
24.5664 -6.48004 2.17085
24.5226 -6.47225 2.12197
24.4567 -6.44237 2.05121
24.3914 -6.47468 2.07103
24.3305 -6.49725 2.09386
24.2679 -6.50409 2.12481
24.1983 -6.51216 2.15955
24.1226 -6.54322 2.18602
24.047 -6.57623 2.22214
23.9726 -6.59087 2.27369
23.8978 -6.60529 2.32372
23.8296 -6.61422 2.37091
23.7799 -6.63419 2.40251
23.7078 -6.64593 2.41111
23.6338 -6.64977 2.43037
23.5509 -6.64187 2.4365
23.426 -6.61977 2.43803
23.2764 -6.62715 2.44461
23.0997 -6.64934 2.52719
23.0541 -6.67757 2.58279
23.1469 -6.61439 2.46507
22.9478 -6.66661 2.61335
22.8506 -6.65055 2.64749
22.7245 -6.65366 2.72757
22.6872 -6.64681 2.78412
22.6355 -6.64633 2.83444
22.7635 -6.63305 2.67988
22.579 -6.62613 2.88273
22.5753 -6.62813 2.93786
22.5625 -6.61034 3.00228
22.4867 -6.60063 3.05808
22.4145 -6.5775 3.12004
22.3476 -6.55839 3.18739
21.9367 -5.9318 4.53852
21.9459 -5.9022 4.62102
21.9565 -5.85832 4.70708
21.9105 -5.92168 4.51919
21.9743 -5.80925 4.78561
22.0487 -5.73762 4.92857
22.111 -5.71154 4.99599
22.1827 -5.67614 5.04935
22.2604 -5.63866 5.09383
22.3321 -5.60439 5.14551
22.005 -5.76786 4.85681
21.9252 -6.25542 3.76282
21.8999 -6.21255 3.84959
21.8782 -6.169 3.94535
21.8624 -6.11299 4.04247
21.8423 -6.05675 4.1468
21.8405 -6.00393 4.2463
21.8366 -5.9752 4.34096
21.8545 -5.94284 4.4272
21.8838 -5.90399 4.50511
22.281 -6.53715 3.18899
22.0865 -6.41516 3.35638
22.0447 -6.38155 3.44567
21.9828 -6.34002 3.47599
21.914 -6.24959 3.68246
21.9339 -6.2817 3.5056
21.9016 -6.23388 3.58985
22.2138 -6.49809 3.21231
22.1579 -6.44163 3.27606
22.3423 -5.56688 5.17159
22.443 -5.48445 5.24874
22.5439 -5.43568 5.30389
22.6459 -5.38036 5.3728
22.7484 -5.31768 5.43115
22.8401 -5.25395 5.48185
22.3547 -5.52627 5.19562
22.9172 -5.19563 5.5238
22.9846 -5.14748 5.55776
23.0529 -5.10457 5.58681
23.116 -5.05802 5.6267
23.1986 -5.05734 5.65688
23.2892 -5.04476 5.6803
23.3884 -5.03042 5.70548
23.4996 -5.01227 5.73498
23.6158 -4.99216 5.76549
23.7212 -4.95656 5.80484
23.7987 -4.90699 5.8507
23.9237 -4.87474 5.87921
23.9956 -4.882 5.8867
24.0824 -4.87054 5.90093
24.1799 -4.83467 5.93069
24.2815 -4.79612 5.96654
24.3701 -4.7581 5.9919
24.4328 -4.76587 5.99748
24.4445 -4.79793 5.97294
24.4627 -4.82395 5.93485
24.5212 -4.83435 5.92543
24.5797 -4.851 5.91459
24.5859 -4.91789 5.85445
24.5909 -4.9852 5.78764
24.6347 -5.01405 5.76916
24.6798 -5.04026 5.74185
24.7247 -5.06636 5.71651
24.7706 -5.08629 5.7016
24.7814 -5.13915 5.62811
24.8062 -5.18115 5.57192
24.929 -6.20398 3.28359
24.992 -6.2772 3.16884
25.0405 -6.33632 3.06305
25.0793 -6.38725 2.95648
25.124 -6.42555 2.86898
25.1251 -6.44467 2.7884
25.0999 -6.45447 2.72799
25.0913 -6.47688 2.64953
25.1562 -6.5 2.61696
25.2309 -6.50365 2.61218
25.2591 -6.50324 2.57984
25.2037 -6.50875 2.51464
25.1495 -6.49025 2.45374
25.1032 -6.46958 2.39688
24.9983 -6.48605 2.35401
25.0676 -6.44983 2.3415
25.0465 -6.41685 2.28315
25.0301 -6.36944 2.22458
25.0218 -6.29994 2.16548
24.8962 -6.31018 2.08839
24.7672 -6.35259 2.07336
24.6575 -6.38732 2.03638
24.5643 -6.39498 2.02102
24.54 -6.43275 2.07357
24.4882 -6.39858 1.99631
24.4149 -6.36605 1.97681
24.3711 -6.4136 2.00045
24.3174 -6.44172 2.02775
24.2573 -6.46715 2.05066
24.1857 -6.47423 2.0888
24.1042 -6.49111 2.12797
24.024 -6.52524 2.17247
23.95 -6.55771 2.22442
23.873 -6.58188 2.27762
23.7968 -6.59498 2.33437
23.7381 -6.62169 2.37766
23.6391 -6.62234 2.40461
23.5447 -6.61165 2.39305
23.4551 -6.59101 2.37503
23.3348 -6.58059 2.382
23.1957 -6.56959 2.38849
23.0204 -6.61076 2.47454
22.9825 -6.63498 2.55244
23.0639 -6.57155 2.39768
22.8816 -6.61087 2.58571
22.7939 -6.59675 2.6193
22.6829 -6.6158 2.69881
22.6462 -6.62432 2.74454
22.5986 -6.63471 2.79081
22.5595 -6.61637 2.84096
22.7131 -6.58125 2.64745
22.5264 -6.59022 2.88309
22.5101 -6.60334 2.92741
22.4984 -6.6058 2.99006
22.4257 -6.57133 3.04817
22.3432 -6.56115 3.1139
21.9179 -5.90264 4.58536
21.9185 -5.86856 4.64836
21.9227 -5.81555 4.7174
21.8934 -5.88561 4.58418
21.9457 -5.76723 4.79416
21.9802 -5.7234 4.86695
22.0405 -5.70392 4.96272
22.1133 -5.67287 5.02364
22.1898 -5.63868 5.07222
22.2628 -5.61126 5.12823
21.8871 -6.18415 3.7828
21.8627 -6.14698 3.88913
21.8407 -6.10275 3.98536
21.8107 -6.05251 4.08577
21.7982 -5.97424 4.19538
21.8098 -5.93773 4.31025
21.8103 -5.92068 4.41156
21.8448 -5.88981 4.49644
21.8722 -5.85925 4.56943
22.2718 -6.51684 3.12359
22.0958 -6.39376 3.2637
22.0256 -6.35097 3.36313
21.9678 -6.29715 3.41423
21.8773 -6.17556 3.6824
21.9335 -6.24698 3.44182
21.892 -6.21693 3.49672
21.839 -6.14354 3.5696
22.1796 -6.4467 3.15117
22.2702 -5.5703 5.15611
22.3644 -5.48276 5.22317
22.4543 -5.43847 5.27682
22.5516 -5.38342 5.33394
22.6513 -5.32263 5.39475
22.7505 -5.25638 5.44998
22.8397 -5.19412 5.50228
22.2812 -5.52075 5.17558
22.9188 -5.14347 5.55183
22.9859 -5.10577 5.57711
23.0352 -5.06515 5.6015
23.1052 -5.00769 5.61857
23.1851 -5.00876 5.64744
23.2483 -5.01464 5.67283
23.3264 -5.00057 5.69231
23.4258 -4.98779 5.7263
23.5337 -4.97223 5.75195
23.6287 -4.95432 5.76982
23.6932 -4.92199 5.8035
23.7566 -4.88427 5.83388
23.8535 -4.85337 5.86367
23.9872 -4.80631 5.88879
24.031 -4.84174 5.91261
24.0596 -4.85402 5.9018
24.1121 -4.82964 5.93024
24.2087 -4.78276 5.96219
24.3161 -4.74251 5.99082
24.3901 -4.72208 6.00878
24.4406 -4.72968 6.01399
24.4845 -4.7441 6.03035
24.4978 -4.77115 6.00664
24.5117 -4.79539 5.97021
24.5737 -4.80448 5.96674
24.6325 -4.82019 5.96267
24.6351 -4.87695 5.91093
24.6381 -4.9386 5.8397
24.685 -4.97013 5.82508
24.7305 -4.99627 5.8022
24.7719 -5.02541 5.78565
24.8126 -5.04985 5.7691
24.8117 -5.10412 5.69534
24.8154 -5.14753 5.63852
24.8404 -5.1809 5.60644
24.9569 -6.1925 3.36171
25.0321 -6.26639 3.27276
25.084 -6.33085 3.15656
25.1407 -6.38306 3.0542
25.1618 -6.41565 2.95045
25.1995 -6.43499 2.88312
25.1743 -6.45033 2.81984
25.1757 -6.45712 2.7701
25.162 -6.46741 2.73069
25.1569 -6.48125 2.67569
25.2194 -6.49356 2.65533
25.2733 -6.50027 2.65546
25.3062 -6.50091 2.63659
25.3491 -6.49536 2.61878
25.3021 -6.49512 2.55578
25.2546 -6.49655 2.4888
25.2119 -6.47595 2.43285
25.1859 -6.44508 2.38373
25.1748 -6.39965 2.35182
25.1932 -6.35499 2.29199
25.1627 -6.3105 2.21505
25.1796 -6.23943 2.13467
25.0161 -6.23792 2.09033
24.7942 -6.28117 2.02818
24.8986 -6.23575 2.0396
24.6714 -6.29592 1.99769
24.5774 -6.33111 1.97438
24.5154 -6.35404 1.96816
24.4564 -6.32845 1.93508
24.3974 -6.30744 1.87902
24.3503 -6.3485 1.9152
24.3002 -6.37472 1.95297
24.242 -6.40958 1.97538
24.1704 -6.4226 2.01243
24.0839 -6.43497 2.05169
23.9757 -6.45764 2.10142
23.9104 -6.50895 2.17196
23.8399 -6.54299 2.23124
23.7585 -6.57109 2.28737
23.6668 -6.59364 2.352
23.5477 -6.5864 2.34417
23.482 -6.56978 2.3438
23.4135 -6.54993 2.33049
23.2634 -6.50387 2.27246
23.0971 -6.50798 2.31131
22.9546 -6.53349 2.41341
22.8844 -6.57542 2.48343
22.9871 -6.4963 2.33457
22.8109 -6.56754 2.54866
22.726 -6.55324 2.56098
22.6471 -6.57258 2.65566
22.61 -6.58957 2.69572
22.5641 -6.59823 2.74137
22.5219 -6.58847 2.79647
22.4877 -6.56957 2.85214
22.6585 -6.55069 2.60035
22.4556 -6.56929 2.91134
22.4383 -6.56576 2.97785
22.3519 -6.54432 3.04156
21.8912 -5.84188 4.64358
21.8862 -5.80245 4.67876
21.9024 -5.76421 4.72147
21.9171 -5.72023 4.76986
21.9329 -5.67345 4.81336
21.9939 -5.66905 4.90326
22.0538 -5.65385 4.98623
22.127 -5.6286 5.04226
22.1931 -5.60927 5.10935
21.846 -6.12986 3.76905
21.8463 -6.11682 3.84868
21.8249 -6.08521 3.93106
21.8145 -6.03022 4.0125
21.7879 -5.96967 4.09869
21.7587 -5.8979 4.17353
21.7713 -5.88976 4.27752
21.7924 -5.87244 4.37727
21.8159 -5.85387 4.47226
21.8458 -5.83499 4.55578
21.8735 -5.81931 4.62292
22.2802 -6.48927 3.04831
22.0306 -6.33873 3.24742
22.0956 -6.37379 3.16693
21.9807 -6.29102 3.31363
21.9324 -6.24975 3.36151
21.8271 -6.1101 3.69438
21.8973 -6.20191 3.40507
21.8442 -6.15928 3.44651
21.7788 -6.05301 3.53244
21.7711 -6.06586 3.63459
21.8035 -6.09278 3.46283
22.2207 -6.43523 3.04176
22.1483 -6.39514 3.08361
22.2068 -5.56106 5.12905
22.3032 -5.47933 5.19062
22.3817 -5.44041 5.24645
22.4636 -5.38984 5.31075
22.5616 -5.32945 5.36861
22.6638 -5.25952 5.41828
22.7642 -5.189 5.46485
22.8589 -5.12733 5.51775
22.2331 -5.51269 5.13751
22.9505 -5.08371 5.56744
23.0154 -5.01783 5.58412
23.1032 -4.95487 5.60037
23.1958 -4.95862 5.62796
23.2688 -4.97498 5.66642
23.3673 -4.95577 5.70411
23.4802 -4.94316 5.73147
23.59 -4.93175 5.76974
23.6717 -4.88787 5.80547
23.7709 -4.84292 5.84699
23.8871 -4.79622 5.8641
24.0994 -4.78756 5.93804
24.0003 -4.74023 5.89245
24.0862 -4.74473 5.92434
24.1783 -4.73366 5.94693
24.274 -4.70971 5.98031
24.3725 -4.69287 5.99488
24.4516 -4.69577 6.02039
24.5116 -4.71364 6.03017
24.5455 -4.74061 6.03003
24.5635 -4.76912 6.00333
24.6269 -4.77965 6.00323
24.6853 -4.79693 6.0013
24.6883 -4.84329 5.95913
24.6899 -4.89549 5.89209
24.7392 -4.91985 5.87296
24.7831 -4.95422 5.8588
24.8225 -4.99035 5.8452
24.8591 -5.02831 5.832
24.8498 -5.08389 5.75722
24.8439 -5.13784 5.68318
24.8755 -5.18125 5.65072
24.8708 -5.22677 5.56436
24.914 -6.14665 3.43518
24.9678 -6.1797 3.44311
25.0304 -6.23088 3.38441
25.1212 -6.27771 3.34482
25.1418 -6.32303 3.24502
25.184 -6.36416 3.15991
25.247 -6.38933 3.09867
25.2289 -6.40952 3.01507
25.246 -6.42603 2.94725
25.2841 -6.44713 2.89959
25.2412 -6.45202 2.84063
25.2226 -6.45831 2.79063
25.2183 -6.46897 2.74709
25.2174 -6.47672 2.70079
25.2773 -6.4863 2.69037
25.3314 -6.50038 2.68597
25.3848 -6.49887 2.67755
25.4402 -6.50155 2.66977
25.3985 -6.493 2.60374
25.3511 -6.49282 2.53742
25.307 -6.46983 2.47875
25.2899 -6.44666 2.41895
25.298 -6.41001 2.39021
25.3238 -6.37862 2.35582
25.3748 -6.32861 2.31198
25.2925 -6.30255 2.26185
25.2906 -6.26654 2.20433
25.3584 -6.19324 2.15029
25.2784 -6.14676 2.07284
25.1206 -6.15326 2.06083
24.9846 -6.16366 2.02591
24.8092 -6.22075 1.99213
24.7242 -6.23964 1.97242
24.8828 -6.173 1.98682
24.6433 -6.21704 1.94277
24.5823 -6.24226 1.92549
24.5089 -6.27483 1.92026
24.4472 -6.24909 1.85932
24.3834 -6.2198 1.82179
24.3381 -6.25676 1.84126
24.2883 -6.29978 1.86075
24.2303 -6.32467 1.90585
24.1589 -6.3623 1.92829
24.069 -6.3744 1.96002
23.9647 -6.38124 2.00485
23.8398 -6.45749 2.11565
23.8562 -6.38852 2.04975
23.791 -6.49949 2.1786
23.7178 -6.52822 2.23936
23.6345 -6.56132 2.29683
23.5174 -6.54506 2.30995
23.4405 -6.50544 2.24868
23.3507 -6.42507 2.15621
23.1948 -6.39703 2.13654
23.095 -6.42302 2.20048
22.9947 -6.42855 2.24418
22.9003 -6.4672 2.3347
22.8537 -6.49754 2.37951
22.7908 -6.50719 2.40655
22.7948 -6.54199 2.48487
22.9173 -6.42909 2.27177
22.7613 -6.52856 2.50862
22.6989 -6.49508 2.46672
22.6432 -6.49722 2.51956
22.6249 -6.55118 2.62202
22.5894 -6.55013 2.63688
22.5293 -6.53514 2.67414
22.4839 -6.543 2.74001
22.4221 -6.5386 2.79878
22.4031 -6.53239 2.87743
22.6032 -6.51136 2.58061
22.3628 -6.5282 2.95996
21.8707 -5.79736 4.65105
21.8661 -5.77265 4.66586
21.859 -5.71817 4.67614
21.8748 -5.66574 4.71791
21.8874 -5.6189 4.74968
21.95 -5.6257 4.84122
22.0084 -5.62155 4.93051
22.0742 -5.60856 5.00514
22.1369 -5.5893 5.07211
21.8136 -6.08616 3.77012
21.8175 -6.08087 3.83108
21.8238 -6.06654 3.89072
21.8104 -6.02202 3.94948
21.7905 -5.96492 4.01882
21.7496 -5.90482 4.07849
21.7233 -5.81876 4.11469
21.7431 -5.82189 4.23173
21.7589 -5.82086 4.33597
21.7893 -5.80679 4.42931
21.8076 -5.7941 4.53315
21.8499 -5.79583 4.61254
22.2833 -6.47315 2.97497
22.0366 -6.31876 3.14594
21.9807 -6.28285 3.2039
22.0914 -6.34722 3.0859
21.936 -6.23762 3.25864
21.8911 -6.1967 3.3061
21.7768 -6.04958 3.73399
21.8473 -6.15322 3.34772
21.8082 -6.10342 3.37827
21.7547 -6.02981 3.44714
21.7396 -5.99083 3.49929
21.7266 -5.99372 3.57817
21.712 -5.98221 3.68913
21.7702 -6.0588 3.39533
22.2243 -6.44251 2.97363
22.1802 -6.39819 3.00731
22.1327 -6.36515 3.0334
22.1634 -5.53893 5.08736
22.2542 -5.46599 5.16515
22.3269 -5.43032 5.2096
22.4038 -5.38397 5.26505
22.4913 -5.32733 5.32438
22.5894 -5.26337 5.37953
22.6891 -5.19381 5.43435
22.7861 -5.123 5.4912
22.9033 -5.04829 5.53859
22.1976 -5.49132 5.11
23.0085 -4.96582 5.56079
23.2024 -4.8971 5.62831
23.107 -4.89137 5.58578
23.3083 -4.9147 5.66921
23.4308 -4.90573 5.71745
23.5614 -4.88853 5.76121
23.6782 -4.83756 5.81778
23.8002 -4.78589 5.83425
23.9205 -4.72606 5.8519
24.0341 -4.6724 5.88359
24.0992 -4.6969 5.91252
24.1573 -4.70238 5.93262
24.2352 -4.67794 5.95638
24.3438 -4.64893 5.98911
24.4465 -4.64884 6.03042
24.5468 -4.67227 6.04959
24.5953 -4.71502 6.04516
24.6161 -4.74951 6.03495
24.6828 -4.76317 6.034
24.734 -4.77633 6.02354
24.7446 -4.81112 5.99333
24.7457 -4.85816 5.93982
24.7959 -4.89184 5.92926
24.8409 -4.93022 5.91476
24.8781 -4.97238 5.90074
24.91 -5.01749 5.88896
24.8925 -5.06911 5.82143
24.8889 -5.12923 5.74138
24.9112 -5.18579 5.69292
24.9088 -5.2292 5.61081
24.9117 -5.26951 5.51481
24.9194 -6.12985 3.51306
24.9868 -6.16234 3.53069
25.0276 -6.20482 3.46586
25.1042 -6.23609 3.44559
25.2023 -6.27986 3.42649
25.2227 -6.31074 3.31833
25.2302 -6.34267 3.23481
25.2817 -6.37579 3.18962
25.3388 -6.41481 3.14474
25.3102 -6.42225 3.06308
25.293 -6.42838 3.00122
25.3322 -6.44499 2.96411
25.3832 -6.48457 2.93298
25.3185 -6.46711 2.86102
25.2769 -6.46062 2.81411
25.2771 -6.46694 2.77708
25.2777 -6.47722 2.73428
25.3414 -6.49137 2.73145
25.4041 -6.50833 2.73229
25.4706 -6.51195 2.73178
25.5392 -6.50851 2.73379
25.5002 -6.48887 2.66417
25.4526 -6.48542 2.58924
25.398 -6.46254 2.52686
25.355 -6.43808 2.48214
25.3855 -6.42497 2.44817
25.4514 -6.39469 2.41951
25.482 -6.33854 2.37595
25.5505 -6.2664 2.34181
25.4203 -6.26956 2.27963
25.3503 -6.27375 2.24682
25.4158 -6.21956 2.23235
25.5484 -6.13877 2.18977
25.4408 -6.09322 2.10028
25.3482 -6.03393 2.04639
25.2054 -6.06164 2.0193
25.055 -6.07653 1.972
24.9312 -6.11395 1.95045
24.8012 -6.16154 1.95629
24.7513 -6.19718 1.95478
24.6861 -6.18677 1.93572
24.853 -6.13049 1.93875
24.6461 -6.18523 1.9079
24.616 -6.1814 1.88113
24.5375 -6.16286 1.83167
24.4246 -6.1713 1.79586
24.3779 -6.17386 1.7844
24.3488 -6.17841 1.77681
24.2932 -6.1895 1.76574
24.228 -6.24527 1.80844
24.1588 -6.28189 1.84798
24.0707 -6.30346 1.87297
23.9431 -6.3044 1.89449
23.8326 -6.32532 1.95795
23.7406 -6.4059 2.06699
23.7366 -6.45068 2.13191
23.7493 -6.3511 2.00122
23.6659 -6.47963 2.1786
23.5852 -6.51005 2.24558
23.5175 -6.45291 2.16006
23.4363 -6.35134 2.02144
23.2557 -6.34518 2.04591
23.1461 -6.33061 2.04282
23.072 -6.33694 2.08161
22.9649 -6.34048 2.11385
22.9043 -6.36814 2.19387
22.856 -6.4134 2.25883
22.8316 -6.44767 2.29878
22.776 -6.43833 2.30965
22.6952 -6.42793 2.33882
22.7552 -6.50186 2.45484
22.7717 -6.52695 2.48793
22.8744 -6.39778 2.22555
22.615 -6.44162 2.40235
22.5541 -6.44614 2.48264
22.5389 -6.48523 2.58918
22.4685 -6.4554 2.61158
22.4426 -6.48954 2.67893
22.3983 -6.4905 2.73007
22.3305 -6.46864 2.76884
22.3458 -6.48526 2.83939
22.3287 -6.48545 2.90599
21.8253 -5.75508 4.61127
21.7923 -5.6971 4.59589
21.8176 -5.64653 4.61895
21.834 -5.59529 4.64406
21.8456 -5.54957 4.67021
21.8973 -5.56676 4.77112
21.9691 -5.57386 4.86342
22.0336 -5.57043 4.95317
22.0986 -5.55711 5.02748
21.7895 -6.03498 3.81551
21.7952 -6.02761 3.88653
21.783 -5.96866 3.94527
21.7596 -5.91015 3.99933
21.7322 -5.8482 4.02497
21.6793 -5.78544 4.00999
21.6756 -5.73775 4.06916
21.7039 -5.74799 4.17102
21.7169 -5.75927 4.27731
21.7437 -5.75873 4.37486
21.765 -5.74966 4.46227
21.7835 -5.73115 4.53794
22.2623 -6.44522 2.92048
22.0454 -6.303 3.05256
21.9897 -6.26563 3.09269
21.927 -6.2297 3.1417
22.0937 -6.33416 3.0092
21.8826 -6.18607 3.19583
21.8425 -6.13994 3.24505
21.7411 -5.9862 3.79348
21.7965 -6.09867 3.28606
21.7653 -6.04633 3.32215
21.7325 -6.00026 3.36615
21.7033 -5.96389 3.43024
21.6906 -5.93435 3.50942
21.6714 -5.91846 3.60147
21.6607 -5.88632 3.69671
21.6969 -5.92008 3.77789
22.1996 -6.40563 2.93636
22.1446 -6.36482 2.96822
22.1444 -5.50571 5.04921
22.2805 -5.41506 5.19063
22.2273 -5.44119 5.14329
22.3545 -5.37454 5.23164
22.4362 -5.32243 5.28249
22.5248 -5.2612 5.33906
22.6265 -5.1951 5.38325
22.7193 -5.12176 5.43814
22.8127 -5.05024 5.48857
22.9139 -4.97744 5.5203
22.1956 -5.45828 5.0799
23.0105 -4.89755 5.5446
23.221 -4.82626 5.60758
23.3135 -4.84287 5.65741
23.1124 -4.81306 5.57368
23.3986 -4.85743 5.70029
23.5004 -4.85482 5.73365
23.6027 -4.82608 5.77959
23.7119 -4.77627 5.80905
23.8387 -4.70796 5.82406
23.9649 -4.63393 5.86425
24.1261 -4.63169 5.93179
24.0864 -4.58523 5.89618
24.1785 -4.65481 5.95123
24.2712 -4.62635 5.94714
24.3662 -4.58741 5.96771
24.4424 -4.60403 6.02048
24.5304 -4.62183 6.04939
24.6313 -4.643 6.07333
24.6607 -4.69458 6.07282
24.6788 -4.73512 6.06281
24.7502 -4.75817 6.05893
24.7947 -4.79284 6.03567
24.8103 -4.83272 5.98673
24.8625 -4.87968 5.98337
24.9011 -4.93028 5.96912
24.9237 -4.98431 5.96
24.9527 -5.03089 5.94493
24.9354 -5.06419 5.88306
24.9239 -5.10802 5.82005
24.9257 -5.15614 5.76779
24.9475 -5.20044 5.73556
24.9481 -5.23181 5.66117
24.9461 -5.27756 5.57906
24.9084 -5.31216 5.40678
24.9565 -5.32699 5.46635
24.8713 -6.09078 3.58919
24.9368 -6.10801 3.60964
25.0197 -6.14613 3.62914
25.0697 -6.19552 3.53842
25.1691 -6.23373 3.53346
25.2816 -6.27038 3.51893
25.3067 -6.31945 3.39866
25.3056 -6.35954 3.2879
25.3711 -6.41049 3.24197
25.4253 -6.45349 3.19273
25.3904 -6.45802 3.11048
25.3611 -6.45716 3.03633
25.4123 -6.48781 3.00971
25.4754 -6.5051 2.99671
25.4754 -6.50911 2.94275
25.4001 -6.49709 2.87892
25.3365 -6.47861 2.82069
25.3429 -6.48202 2.77764
25.4123 -6.50879 2.78306
25.4863 -6.51804 2.7901
25.5645 -6.51998 2.79774
25.6441 -6.50692 2.81381
25.6148 -6.48536 2.74017
25.564 -6.4722 2.65729
25.5021 -6.46068 2.57578
25.4402 -6.4285 2.51827
25.4976 -6.4053 2.49463
25.5865 -6.37745 2.48563
25.59 -6.34782 2.43463
25.6295 -6.29727 2.40267
25.7086 -6.23707 2.38649
25.7022 -6.19443 2.33284
25.5637 -6.21688 2.2652
25.7162 -6.14508 2.25754
25.7297 -6.06085 2.18531
25.5971 -6.01619 2.12386
25.4939 -5.99706 2.03168
25.4048 -5.9542 1.99548
25.2912 -5.99559 1.96405
25.1605 -6.00134 1.94157
25.048 -5.99799 1.89254
24.9423 -6.03975 1.89432
24.8507 -6.08955 1.88211
24.783 -6.12006 1.90505
24.7322 -6.15439 1.92036
24.6676 -6.15739 1.89017
24.6511 -6.12752 1.84566
24.6594 -6.06842 1.81007
24.5683 -6.0597 1.74016
24.4642 -6.10417 1.7394
24.3874 -6.12982 1.74583
24.3342 -6.09653 1.71579
24.2868 -6.08665 1.65174
24.2317 -6.16015 1.70745
24.1673 -6.20554 1.75559
24.0888 -6.22674 1.78993
23.9902 -6.23831 1.80569
23.8738 -6.22929 1.79792
23.7819 -6.25701 1.85895
23.6849 -6.28557 1.92901
23.625 -6.34653 2.00482
23.6222 -6.41792 2.09458
23.519 -6.2579 1.91656
23.3504 -6.23268 1.8859
23.2591 -6.27402 1.94267
23.1577 -6.2849 1.965
23.0681 -6.27966 1.98161
22.9817 -6.26814 1.99504
22.8812 -6.24931 1.98783
22.8492 -6.30318 2.09376
22.8357 -6.35842 2.18372
22.7924 -6.37657 2.23142
22.7131 -6.35309 2.20873
22.6338 -6.30108 2.19921
22.5867 -6.35733 2.27735
22.5302 -6.38146 2.34903
22.4711 -6.37968 2.41062
22.475 -6.42163 2.51813
22.4064 -6.38981 2.55448
22.3962 -6.42382 2.62986
22.3724 -6.45935 2.67154
22.3194 -6.43263 2.70488
22.263 -6.44318 2.81385
22.2436 -6.38265 2.74772
22.2873 -6.45712 2.86871
21.7654 -5.6764 4.52093
21.7564 -5.62587 4.53324
21.7572 -5.54676 4.52902
21.7819 -5.50898 4.57319
21.7965 -5.47681 4.60258
21.8401 -5.48922 4.6799
21.9048 -5.49819 4.78908
21.9857 -5.52058 4.90108
22.0756 -5.50757 4.97787
21.7679 -5.97643 3.87246
21.7481 -5.92115 3.92759
21.723 -5.87873 3.96703
21.6911 -5.82863 3.94807
21.6284 -5.76411 3.89671
21.6211 -5.7221 3.97409
21.6286 -5.68537 4.02318
21.6473 -5.68836 4.10179
21.6737 -5.68018 4.1984
21.6979 -5.69901 4.30936
21.7266 -5.69656 4.39145
21.7487 -5.68688 4.46308
22.2248 -6.42081 2.87293
22.057 -6.3016 2.97681
22.0032 -6.26995 2.98636
21.9381 -6.21013 3.00783
21.8842 -6.16269 3.08172
22.1018 -6.32572 2.93224
21.8366 -6.12212 3.13695
21.7924 -6.07931 3.1846
21.7233 -5.92939 3.8559
21.7527 -6.03348 3.22978
21.718 -5.98219 3.27525
21.6767 -5.91881 3.33097
21.65 -5.8896 3.42949
21.6342 -5.86029 3.5229
21.6257 -5.8332 3.61535
21.6124 -5.80909 3.70625
21.6495 -5.85535 3.78274
21.6848 -5.88421 3.8399
22.1576 -6.37203 2.89345
22.1442 -5.45332 5.02793
22.2601 -5.39776 5.16994
22.3185 -5.36216 5.20113
22.2292 -5.40048 5.13008
22.3962 -5.31447 5.24082
22.4757 -5.25578 5.29463
22.563 -5.19179 5.34685
22.6545 -5.12469 5.39442
22.7406 -5.05499 5.44418
22.8263 -4.98252 5.4873
22.9162 -4.90719 5.51444
22.1858 -5.39407 5.08669
23.0116 -4.82268 5.53176
23.2244 -4.72465 5.61708
23.3479 -4.74761 5.66516
23.4169 -4.79545 5.70297
23.1146 -4.69802 5.56492
23.4716 -4.8165 5.72808
23.5583 -4.80135 5.75158
23.6423 -4.77248 5.78582
23.7423 -4.7095 5.78442
23.8833 -4.57301 5.81282
24.0495 -4.51288 5.85942
24.191 -4.5653 5.92789
24.2117 -4.6118 5.92628
24.1707 -4.48884 5.91
24.2842 -4.56892 5.93371
24.3761 -4.52286 5.96717
24.4574 -4.55411 6.00495
24.5179 -4.58121 6.03807
24.6034 -4.5924 6.05814
24.7012 -4.61392 6.0947
24.7334 -4.67194 6.10745
24.7618 -4.73269 6.1061
24.8299 -4.77673 6.08381
24.8826 -4.83938 6.05827
24.9249 -4.90305 6.03612
24.9517 -4.95923 6.02197
24.9605 -5.01682 6.01262
24.9734 -5.05799 5.99279
24.9724 -5.07713 5.94021
24.9574 -5.11004 5.88311
24.9547 -5.14257 5.82647
24.9568 -5.17623 5.7874
24.9821 -5.21246 5.78377
24.9831 -5.24336 5.71961
24.9846 -5.27603 5.6456
24.9868 -5.3237 5.57025
24.9435 -5.36146 5.33627
25.0114 -5.36493 5.4878
24.9948 -5.37761 5.37327
24.8212 -6.0601 3.66
24.8796 -6.06818 3.68664
24.958 -6.09006 3.72047
25.0596 -6.13459 3.73975
25.1193 -6.18467 3.63598
25.2319 -6.2188 3.6345
25.3931 -6.32206 3.49456
25.3601 -6.26108 3.63847
25.4124 -6.37931 3.36129
25.4701 -6.43559 3.28251
25.5174 -6.4762 3.23307
25.4752 -6.48964 3.15538
25.4415 -6.49116 3.08137
25.496 -6.50096 3.0572
25.5406 -6.50839 3.04265
25.549 -6.50795 3.00377
25.5607 -6.50802 2.95823
25.4845 -6.51923 2.89432
25.4088 -6.50952 2.83223
25.49 -6.52003 2.84383
25.5726 -6.52024 2.85856
25.6574 -6.5208 2.87595
25.7459 -6.51399 2.90104
25.7372 -6.50141 2.82904
25.7075 -6.47104 2.74484
25.6147 -6.44677 2.64324
25.5515 -6.43197 2.56054
25.6177 -6.41099 2.54189
25.6962 -6.33901 2.4893
25.7055 -6.37886 2.53668
25.714 -6.32259 2.43936
25.7513 -6.27658 2.41863
25.8039 -6.23696 2.40206
25.8171 -6.18713 2.38022
25.8422 -6.13202 2.32908
25.8535 -6.06813 2.25294
25.8492 -6.01054 2.17728
25.7523 -5.95981 2.12391
25.6217 -5.90891 2.02706
25.4916 -5.90741 1.98136
25.4303 -5.91966 1.95159
25.3604 -5.92882 1.93449
25.2509 -5.94549 1.90451
25.1424 -5.9582 1.86579
24.9621 -5.98496 1.81783
25.0581 -5.96303 1.82486
24.8137 -6.016 1.8113
24.7491 -6.09175 1.83959
24.7132 -6.12524 1.87733
24.6838 -6.00123 1.74998
24.598 -5.97706 1.69696
24.498 -6.02487 1.68207
24.4078 -6.05911 1.6845
24.3589 -6.0222 1.62127
24.3099 -5.97539 1.52583
24.2251 -6.06992 1.61113
24.1763 -6.13369 1.67594
24.1097 -6.14581 1.70459
24.0222 -6.16618 1.72668
23.9262 -6.1756 1.7395
23.7466 -6.18934 1.76523
23.8319 -6.18589 1.72789
23.6068 -6.20792 1.81016
23.4231 -6.18768 1.80245
23.2085 -6.19895 1.85237
23.2726 -6.15876 1.78796
23.156 -6.23619 1.89356
23.0761 -6.22775 1.90584
23.0044 -6.23208 1.9191
22.9256 -6.20787 1.89313
22.8184 -6.16472 1.87081
22.7808 -6.22841 1.98575
22.7572 -6.29747 2.10785
22.6688 -6.25428 2.09632
22.5948 -6.2183 2.08119
22.5527 -6.26491 2.16181
22.5123 -6.2985 2.24042
22.4655 -6.31656 2.30767
22.4086 -6.31749 2.36107
22.4059 -6.35966 2.4596
22.3333 -6.34228 2.50339
22.3345 -6.37257 2.58496
22.3262 -6.40153 2.6461
22.2626 -6.36016 2.67094
22.1866 -6.37858 2.82067
22.1756 -6.31854 2.68134
22.1421 -6.31399 2.76403
21.7294 -5.61523 4.44983
21.7056 -5.53533 4.43332
21.6765 -5.43902 4.40762
21.7149 -5.43197 4.46476
21.741 -5.4078 4.5102
21.7698 -5.39139 4.571
21.8295 -5.40137 4.66048
21.8947 -5.41257 4.74743
21.959 -5.461 4.84281
22.025 -5.4637 4.91742
22.0852 -5.42923 4.97857
21.6967 -5.88392 3.90722
21.6546 -5.83641 3.86548
21.6059 -5.78918 3.79718
21.5671 -5.71768 3.79471
21.5714 -5.68241 3.86921
21.5793 -5.65005 3.94473
21.5919 -5.63654 4.02314
21.6091 -5.62868 4.10059
21.6278 -5.6024 4.15964
21.6577 -5.63257 4.24481
21.6806 -5.63843 4.3198
21.7011 -5.62539 4.38228
22.0482 -6.2828 2.90432
21.9807 -6.23013 2.89475
21.915 -6.16743 2.89119
21.8758 -6.14118 2.97288
21.829 -6.10838 3.03136
22.1082 -6.32349 2.84865
21.7843 -6.06481 3.07706
21.7391 -6.01996 3.12863
21.7065 -5.97304 3.18093
21.6691 -5.92221 3.22127
21.6142 -5.83612 3.34984
21.6216 -5.85618 3.24961
21.5885 -5.81733 3.44476
21.5763 -5.78773 3.53739
21.5716 -5.75967 3.62742
21.5692 -5.73864 3.7138
22.1387 -5.37541 5.03741
22.2841 -5.35033 5.17025
22.3553 -5.30063 5.21001
22.2469 -5.33792 5.13005
22.4308 -5.24397 5.25812
22.5109 -5.18283 5.3087
22.5957 -5.11923 5.35389
22.6787 -5.05505 5.39852
22.753 -4.9879 5.45072
22.834 -4.91559 5.48541
22.9192 -4.84017 5.49796
22.1971 -5.31739 5.08982
23.0007 -4.74389 5.50509
23.3452 -4.64372 5.64408
23.2475 -4.60551 5.59625
23.4551 -4.65624 5.68772
23.4852 -4.72048 5.70891
23.529 -4.7658 5.72363
23.0642 -4.60852 5.50784
23.1712 -4.5461 5.54995
23.6324 -4.73675 5.75956
23.7257 -4.64288 5.76868
23.7984 -4.52984 5.75351
23.8905 -4.40656 5.80014
24.0197 -4.38741 5.83899
24.1653 -4.37467 5.87228
24.2843 -4.4994 5.92084
24.292 -4.39712 5.90836
24.3963 -4.43906 5.95422
24.4852 -4.49205 5.99082
24.5592 -4.54268 6.03262
24.6618 -4.55847 6.06756
24.7582 -4.58116 6.10804
24.8006 -4.64253 6.13216
24.8309 -4.70981 6.14597
24.8619 -4.76113 6.13511
24.913 -4.80126 6.10972
24.9542 -4.86222 6.1264
24.9505 -4.90352 6.10135
24.9786 -4.94911 6.0798
24.9971 -5.0082 6.06915
24.9928 -5.06419 6.0518
25.0075 -5.0935 5.99897
24.9949 -5.12278 5.94
24.9917 -5.14394 5.87878
24.986 -5.17567 5.83031
25.0214 -5.20988 5.8384
25.0289 -5.24374 5.77931
25.0285 -5.278 5.70692
25.0224 -5.30833 5.63912
25.0429 -5.34615 5.58719
24.9757 -5.40795 5.2606
25.0728 -5.38343 5.51456
25.0417 -5.40667 5.41009
25.019 -5.43204 5.30117
24.8282 -6.03368 3.73876
24.8813 -6.03565 3.78779
24.9824 -6.06033 3.86453
25.1226 -6.12202 3.83782
25.1718 -6.16392 3.73404
25.2773 -6.19507 3.74292
25.4976 -6.37546 3.47632
25.478 -6.31516 3.592
25.3767 -6.22248 3.78033
25.4641 -6.26763 3.71258
25.5269 -6.42307 3.38033
25.5652 -6.46425 3.31618
25.6079 -6.49709 3.27413
25.5645 -6.50637 3.19735
25.5266 -6.5085 3.12425
25.573 -6.5124 3.09622
25.6056 -6.51254 3.0644
25.6272 -6.5058 3.02492
25.6446 -6.5067 2.98011
25.5706 -6.51903 2.91069
25.6552 -6.51828 2.93231
25.7422 -6.52296 2.95695
25.8356 -6.53527 2.98454
25.8503 -6.50921 2.92682
25.8502 -6.48063 2.85581
25.8538 -6.45612 2.78342
25.7307 -6.427 2.70369
25.659 -6.4193 2.61792
25.7238 -6.39281 2.60298
25.8087 -6.33321 2.53661
25.8056 -6.31277 2.48816
25.817 -6.35987 2.59755
25.8092 -6.28726 2.44883
25.8386 -6.25069 2.43209
25.8915 -6.20946 2.40869
25.9435 -6.15468 2.36869
25.9666 -6.07148 2.314
25.9555 -5.99749 2.22873
25.889 -5.92333 2.13873
25.7844 -5.86962 2.0336
25.6665 -5.81857 1.93161
25.5374 -5.84885 1.92467
25.4362 -5.88501 1.91548
25.3314 -5.88342 1.88042
25.2197 -5.90155 1.84833
25.1184 -5.91248 1.81543
25.0146 -5.92387 1.77868
24.8946 -5.9435 1.75829
24.7842 -5.96331 1.73283
24.7062 -5.95684 1.69415
24.6499 -5.93338 1.64698
24.5462 -5.96503 1.62658
24.4494 -5.99672 1.61299
24.4111 -5.95049 1.54501
24.3988 -5.899 1.46965
24.3428 -5.87402 1.426
24.2554 -5.90307 1.42676
24.195 -5.9952 1.50686
24.14 -6.06973 1.60952
24.0454 -6.08483 1.63825
23.9527 -6.10793 1.66812
23.8587 -6.12934 1.67328
23.7529 -6.13436 1.68595
23.6276 -6.13528 1.70968
23.4845 -6.13132 1.7244
23.3435 -6.11536 1.72127
23.1383 -6.13877 1.77656
23.0951 -6.17774 1.8406
23.2067 -6.10101 1.70362
22.9988 -6.17846 1.85639
22.9136 -6.13456 1.81116
22.8252 -6.09136 1.76028
22.7297 -6.0969 1.80303
22.7169 -6.16561 1.89263
22.6991 -6.20308 1.99743
22.6293 -6.18138 1.99585
22.565 -6.15845 1.98098
22.528 -6.18377 2.05702
22.4892 -6.21421 2.14193
22.4582 -6.24001 2.22021
22.4146 -6.25622 2.2745
22.3541 -6.26295 2.31142
22.3412 -6.3024 2.40976
22.2588 -6.27213 2.46565
22.2645 -6.3267 2.55302
22.2822 -6.34988 2.61565
22.218 -6.31034 2.61514
22.1406 -6.25916 2.61916
22.0927 -6.25516 2.69686
22.0484 -6.25164 2.79958
21.6505 -5.52035 4.34395
21.6281 -5.4206 4.33082
21.6037 -5.32487 4.30886
21.644 -5.33272 4.36275
21.6781 -5.31627 4.40226
21.7008 -5.28509 4.44895
21.7409 -5.24208 4.513
21.8312 -5.33286 4.64838
21.8868 -5.33989 4.72348
21.9443 -5.38898 4.80693
21.992 -5.41931 4.87393
22.0437 -5.39113 4.91694
22.0871 -5.34409 4.9835
21.5408 -5.67998 3.71477
21.5282 -5.64501 3.76579
21.5187 -5.59668 3.83721
21.535 -5.58504 3.93899
21.5504 -5.5745 4.01968
21.5698 -5.56046 4.08773
21.582 -5.54708 4.13517
21.6201 -5.56391 4.194
21.6412 -5.58746 4.25864
21.6447 -5.56304 4.2972
21.9596 -6.18324 2.79719
21.8939 -6.11864 2.80395
21.8658 -6.10177 2.88765
21.8312 -6.09251 2.95064
21.7994 -6.04654 2.97894
21.7351 -5.99732 3.00519
21.6925 -5.95706 3.08511
21.6702 -5.92264 3.14101
21.6313 -5.87097 3.15203
21.5578 -5.76601 3.37483
21.5728 -5.78078 3.28148
21.5856 -5.78665 3.17147
21.5443 -5.74052 3.46364
21.5413 -5.70859 3.55158
21.527 -5.69227 3.64017
22.152 -5.28782 5.03347
22.3142 -5.28159 5.17574
22.3892 -5.22336 5.21877
22.2707 -5.25734 5.13204
22.4702 -5.1654 5.26125
22.5427 -5.10346 5.31322
22.6176 -5.04272 5.35997
22.6929 -4.98203 5.40182
22.7684 -4.91626 5.43893
22.8446 -4.84306 5.46898
22.9151 -4.77421 5.48663
22.2176 -5.2262 5.0855
22.9612 -4.67144 5.47247
23.4565 -4.56556 5.65696
23.3656 -4.52707 5.60713
23.2774 -4.46869 5.57352
23.5377 -4.58866 5.68735
23.5708 -4.64009 5.71099
23.6089 -4.69202 5.7269
23.0042 -4.49311 5.45618
23.1155 -4.46481 5.5082
23.2083 -4.40709 5.53178
23.6874 -4.60067 5.72549
23.7222 -4.48394 5.7368
23.8048 -4.40118 5.75135
23.8657 -4.28683 5.74953
23.9876 -4.25576 5.78619
24.1611 -4.199 5.83743
24.3103 -4.24873 5.88581
24.4415 -4.31662 5.94376
24.5182 -4.41162 5.9848
24.6097 -4.47966 6.04049
24.7252 -4.51634 6.09184
24.8046 -4.54964 6.09655
24.8526 -4.60671 6.12004
24.9163 -4.68419 6.16636
24.9133 -4.75077 6.16615
24.9216 -4.78822 6.15424
24.9618 -4.82797 6.15782
25.0077 -4.88846 6.18434
24.9857 -4.92682 6.16055
24.9895 -4.95293 6.12987
25.0156 -5.00248 6.12477
25.0334 -5.07351 6.12182
25.0416 -5.11517 6.06613
25.0409 -5.1415 5.99664
25.0226 -5.1664 5.93227
25.0151 -5.178 5.87612
25.0467 -5.20788 5.90839
25.0723 -5.24676 5.85291
25.084 -5.27774 5.77022
25.0738 -5.31413 5.6789
25.1123 -5.35285 5.61599
24.9608 -5.44588 5.15259
24.9993 -5.46126 5.19093
25.1379 -5.40221 5.53715
25.0975 -5.42291 5.44124
25.0682 -5.4493 5.34363
25.0481 -5.4822 5.2278
24.7975 -6.007 3.81426
24.8452 -5.99605 3.89266
24.8925 -5.98588 3.9914
25.0069 -6.02658 3.99155
25.1074 -6.07017 3.9472
25.212 -6.12021 3.91355
25.2167 -6.14403 3.81422
25.2975 -6.17107 3.85618
25.5765 -6.35487 3.57591
25.5984 -6.40961 3.47807
25.5531 -6.30662 3.68476
25.3959 -6.18155 3.8997
25.4691 -6.22698 3.82657
25.5304 -6.26712 3.77391
25.6236 -6.45132 3.40256
25.659 -6.47946 3.35068
25.7022 -6.50867 3.31772
25.6556 -6.51922 3.2401
25.6124 -6.52308 3.16392
25.6533 -6.51635 3.13086
25.6842 -6.50819 3.0937
25.7091 -6.50857 3.05137
25.7281 -6.52063 3.00714
25.8141 -6.52797 3.03548
25.9044 -6.53405 3.06703
25.9443 -6.5317 3.01604
25.9795 -6.48386 2.96673
25.9725 -6.44337 2.88716
26.0024 -6.41122 2.81222
25.8497 -6.41211 2.72373
25.7514 -6.40419 2.66506
25.8337 -6.3827 2.66357
25.9266 -6.32982 2.58636
25.9265 -6.28077 2.53097
25.8811 -6.2653 2.47989
25.9382 -6.3496 2.65372
25.861 -6.2618 2.45442
25.9164 -6.24573 2.44147
26.012 -6.17952 2.42699
26.0673 -6.10965 2.35612
26.0899 -6.00667 2.27915
26.0218 -5.91119 2.17141
25.925 -5.82042 2.05603
25.7944 -5.77284 1.95463
25.6742 -5.72817 1.8259
25.5457 -5.78396 1.83995
25.4225 -5.83622 1.83808
25.286 -5.85222 1.81559
25.1912 -5.88201 1.7922
25.1019 -5.87295 1.757
24.9598 -5.87319 1.69988
24.8323 -5.91677 1.70061
24.7693 -5.93602 1.69903
24.7502 -5.91819 1.66643
24.713 -5.89912 1.60858
24.6042 -5.91694 1.58215
24.5044 -5.939 1.55665
24.4731 -5.90511 1.48855
24.4536 -5.86915 1.43555
24.4116 -5.84966 1.402
24.3699 -5.83208 1.36543
24.3045 -5.82915 1.36548
24.2116 -5.83331 1.36216
24.1481 -5.90889 1.42915
24.0675 -5.9995 1.51702
23.9586 -6.04114 1.57873
23.8849 -6.06924 1.6219
23.7891 -6.06812 1.6217
23.6642 -6.07892 1.62402
23.5277 -6.07765 1.64845
23.4121 -6.08581 1.66358
23.3077 -6.05007 1.65276
23.0678 -6.09018 1.70345
23.016 -6.13763 1.77722
23.1637 -6.03086 1.6227
22.9382 -6.08452 1.72474
22.8554 -6.02663 1.6686
22.7498 -6.03268 1.71733
22.6434 -6.0217 1.75124
22.6531 -6.10337 1.85233
22.6564 -6.15402 1.92447
22.6026 -6.13437 1.91113
22.5524 -6.10977 1.90899
22.5095 -6.11622 1.9607
22.4577 -6.12443 2.04008
22.4315 -6.17626 2.13675
22.4126 -6.20332 2.20434
22.3649 -6.20498 2.2302
22.3171 -6.18942 2.26854
22.2888 -6.2406 2.35623
22.2139 -6.21213 2.38929
22.1636 -6.22598 2.473
22.1838 -6.28057 2.54232
22.1119 -6.21592 2.54713
22.0599 -6.1985 2.62136
22.0111 -6.18765 2.70616
21.5929 -5.46017 4.23326
21.5763 -5.37734 4.23908
21.5732 -5.28532 4.22646
21.553 -5.20499 4.22415
21.5812 -5.22848 4.28036
21.6025 -5.22183 4.32324
21.6364 -5.19032 4.34577
21.6383 -5.137 4.37634
21.6377 -5.0384 4.373
21.7109 -5.0946 4.44523
21.7593 -5.19596 4.52743
21.7928 -5.2642 4.58958
21.8339 -5.28898 4.65399
21.8695 -5.26148 4.69385
21.9408 -5.30257 4.76763
21.9897 -5.34458 4.85533
22.0392 -5.29531 4.91123
22.1004 -5.24372 4.96835
21.5078 -5.62598 3.66323
21.4902 -5.57095 3.71435
21.4813 -5.51472 3.76587
21.4988 -5.51092 3.85445
21.5121 -5.50036 3.93925
21.53 -5.4937 4.01192
21.5433 -5.48839 4.07838
21.5697 -5.49388 4.14179
21.6017 -5.51932 4.21466
21.9312 -6.12464 2.71514
21.8762 -6.05749 2.73872
21.8455 -6.05807 2.82106
21.8156 -6.05383 2.89531
21.7734 -6.00267 2.90423
21.7349 -5.93728 2.89384
21.6979 -5.90854 2.9821
21.6596 -5.88563 3.0641
21.6209 -5.81356 3.0668
21.5238 -5.69284 3.40369
21.5355 -5.70844 3.32318
21.5496 -5.70946 3.23717
21.5813 -5.7389 3.07211
21.5442 -5.69595 3.14754
21.5129 -5.66704 3.48163
21.4989 -5.6381 3.56751
22.1746 -5.19108 5.01446
22.342 -5.19566 5.18018
22.4192 -5.1342 5.22101
22.2891 -5.16058 5.1328
22.4942 -5.07283 5.26435
22.5637 -5.01462 5.31372
22.6338 -4.96045 5.35824
22.7063 -4.90298 5.39375
22.7818 -4.82918 5.42296
22.8649 -4.74681 5.45137
22.2352 -5.12383 5.07167
22.8998 -4.61791 5.43007
23.4732 -4.44792 5.63163
23.5576 -4.49715 5.67308
23.3833 -4.38946 5.58854
23.2989 -4.32977 5.53936
23.6218 -4.54124 5.72209
23.0874 -4.36768 5.46897
22.9091 -4.4871 5.41197
22.9512 -4.37126 5.39537
23.0232 -4.32341 5.41955
23.1546 -4.34752 5.49199
23.2188 -4.27862 5.50653
23.6559 -4.44003 5.69552
23.7341 -4.38256 5.71482
23.7775 -4.30698 5.71759
23.7923 -4.19801 5.69002
23.9158 -4.14755 5.71844
24.0549 -4.07498 5.78083
24.2265 -3.97977 5.80965
24.3588 -4.06215 5.84683
24.468 -4.14659 5.91767
24.5636 -4.2373 5.94956
24.5675 -4.34009 5.9693
24.6191 -4.39844 6.01309
24.706 -4.43091 6.06697
24.7995 -4.47916 6.0997
24.8687 -4.54455 6.11245
24.9265 -4.6019 6.15073
24.9724 -4.76458 6.19136
24.9946 -4.65326 6.19239
25.013 -4.74211 6.20276
24.9604 -4.79649 6.18217
25.0031 -4.83199 6.18903
25.0512 -4.86633 6.21785
25.0711 -4.93908 6.22747
25.0381 -4.96104 6.1997
25.0162 -4.98771 6.171
25.0524 -5.04323 6.17462
25.0863 -5.10331 6.18884
25.0785 -5.1416 6.13484
25.0699 -5.17776 6.06887
25.0669 -5.19591 5.98819
25.1166 -5.23542 5.95168
25.1411 -5.27352 5.85199
25.1502 -5.32171 5.73601
25.1823 -5.38291 5.63756
24.9518 -5.48685 5.0402
24.9855 -5.48351 5.09575
25.0256 -5.50632 5.10047
25.1988 -5.43424 5.54433
25.1519 -5.44544 5.45748
25.1158 -5.45397 5.38173
25.1041 -5.48273 5.28947
25.0976 -5.54412 5.12842
24.7488 -5.96337 3.89901
24.7779 -5.93931 3.99468
24.8074 -5.88873 4.14177
24.9423 -5.97225 4.06727
25.0223 -5.9991 4.05368
25.094 -6.0289 4.03989
25.2165 -6.07084 4.05634
25.3142 -6.14007 3.97756
25.6432 -6.33145 3.69097
25.6681 -6.39088 3.58482
25.6972 -6.42237 3.48703
25.6041 -6.27772 3.79143
25.4241 -6.15477 4.02754
25.4882 -6.19409 3.93971
25.5489 -6.23391 3.86698
25.7119 -6.46838 3.43154
25.7476 -6.49682 3.3953
25.8044 -6.5069 3.37116
25.7531 -6.52305 3.28791
25.7032 -6.524 3.20556
25.7402 -6.51891 3.16532
25.7662 -6.51013 3.12266
25.7906 -6.51852 3.08027
25.8719 -6.52947 3.10883
25.9502 -6.52872 3.1396
25.9986 -6.53119 3.10885
26.0466 -6.49856 3.07206
26.1059 -6.4579 3.04096
26.0782 -6.43945 2.97209
26.0966 -6.4125 2.91488
26.1699 -6.37245 2.88167
26.1211 -6.34733 2.7942
25.9644 -6.37342 2.72631
26.0378 -6.3062 2.63764
26.0344 -6.27685 2.58069
26.0677 -6.24443 2.52405
25.9887 -6.2385 2.47871
26.0791 -6.32876 2.70849
26.1103 -6.20129 2.46789
26.1458 -6.13767 2.41689
26.1822 -6.06534 2.36232
26.2214 -5.9763 2.30443
26.1453 -5.89776 2.2114
26.0722 -5.82525 2.09727
25.997 -5.74266 2.00682
25.8933 -5.73749 1.95516
25.8118 -5.70211 1.89301
25.784 -5.67429 1.81089
25.6775 -5.65186 1.75654
25.5602 -5.66908 1.7191
25.5182 -5.73706 1.74443
25.4326 -5.77561 1.76215
25.3226 -5.80172 1.76521
25.2099 -5.83588 1.75459
25.1086 -5.82859 1.69628
25.0023 -5.81953 1.62885
24.884 -5.84355 1.61039
24.8229 -5.88414 1.64322
24.7732 -5.8579 1.57979
24.6653 -5.87625 1.54308
24.5582 -5.88341 1.51909
24.5172 -5.84963 1.45585
24.477 -5.83325 1.38906
24.4204 -5.8052 1.3472
24.3512 -5.78265 1.32378
24.2662 -5.77314 1.30985
24.1595 -5.77675 1.29418
24.1032 -5.83978 1.35622
24.0325 -5.90797 1.41735
23.9383 -5.96438 1.48253
23.8484 -6.0116 1.55385
23.7182 -6.00802 1.54934
23.5745 -6.00798 1.57154
23.432 -6.02891 1.59972
23.3242 -5.98508 1.57065
22.9992 -6.03161 1.64912
23.2217 -5.94428 1.53421
23.078 -5.95954 1.57498
22.9429 -5.96177 1.60475
22.8364 -5.9643 1.60201
22.7705 -5.97919 1.64897
22.7024 -5.96775 1.67127
22.637 -5.93694 1.64982
22.574 -5.94243 1.69945
22.5447 -6.00867 1.78613
22.5857 -6.06698 1.84769
22.521 -6.05457 1.87786
22.4601 -6.05225 1.92725
22.388 -6.053 1.97897
22.3904 -6.11082 2.07579
22.3742 -6.16066 2.15273
22.3331 -6.14576 2.18187
22.2776 -6.13018 2.20874
22.2496 -6.17619 2.29877
22.1854 -6.14831 2.32954
22.14 -6.17556 2.40665
22.0927 -6.17389 2.47551
22.0387 -6.15557 2.54029
21.9851 -6.11595 2.61754
21.526 -5.33814 4.14842
21.5485 -5.42571 4.14829
21.5101 -5.21554 4.13065
21.5197 -5.14906 4.1484
21.5098 -5.10227 4.17024
21.5347 -5.12223 4.21485
21.5612 -5.14376 4.25828
21.5763 -5.10704 4.27258
21.5876 -5.07974 4.29787
21.5771 -4.9849 4.28632
21.5639 -4.84261 4.26367
21.6422 -4.93675 4.36192
21.7535 -5.12662 4.50886
21.6979 -5.011 4.4526
21.763 -5.1873 4.55052
21.7836 -5.2266 4.58223
21.8076 -5.25978 4.61557
21.8189 -5.23472 4.62848
21.8324 -5.15909 4.6281
21.8993 -5.201 4.72805
21.9822 -5.22999 4.81662
22.0514 -5.18856 4.88843
22.1155 -5.13954 4.94633
21.4734 -5.54488 3.58157
21.4584 -5.49951 3.67556
21.4705 -5.4493 3.78486
21.457 -5.46423 3.72479
21.4726 -5.41594 3.85887
21.4946 -5.41392 3.94164
21.4984 -5.41338 4.01275
21.5165 -5.41246 4.07808
21.9116 -6.0492 2.64987
21.8559 -5.98848 2.68249
21.824 -6.00379 2.76944
21.8028 -6.01711 2.83993
21.7738 -5.96674 2.81675
21.7335 -5.89562 2.77715
21.6959 -5.86648 2.87464
21.6489 -5.83025 2.95654
21.6085 -5.75525 2.98323
21.4987 -5.63641 3.42808
21.5052 -5.64173 3.36501
21.5059 -5.64664 3.29154
21.5124 -5.63412 3.2132
21.571 -5.69611 3.00108
21.5417 -5.65693 3.06152
21.5105 -5.60553 3.13192
21.4823 -5.59943 3.48683
22.1711 -5.08005 5.01012
22.3576 -5.09218 5.18265
22.4341 -5.0266 5.22007
22.2967 -5.05133 5.12598
22.5071 -4.96608 5.26245
22.5738 -4.9144 5.31243
22.6427 -4.87041 5.35406
22.7108 -4.81156 5.38267
22.7885 -4.69674 5.39939
22.2372 -5.01344 5.0581
22.8442 -4.56503 5.3969
23.4898 -4.31372 5.61566
23.5798 -4.38356 5.65408
23.3975 -4.24659 5.5561
23.2992 -4.19124 5.50819
23.1244 -4.30896 5.46803
23.0904 -4.26763 5.43924
22.8561 -4.46844 5.38201
22.8813 -4.38139 5.37241
22.9069 -4.29246 5.34688
22.9595 -4.24545 5.36355
23.03 -4.19513 5.39057
23.1523 -4.253 5.46533
23.2026 -4.16213 5.46284
23.6751 -4.34016 5.67824
23.7297 -4.32007 5.69507
23.7113 -4.25817 5.67172
23.6577 -4.13247 5.63821
23.8001 -4.05932 5.66187
23.9439 -3.96972 5.70701
24.1127 -3.89962 5.74609
24.2695 -3.77462 5.75928
24.3987 -3.85917 5.82497
24.5648 -3.92894 5.89023
24.6171 -4.10814 5.94668
24.6501 -4.20798 5.98331
24.6357 -4.29388 5.98638
24.62 -4.34382 6.01265
24.6802 -4.34828 6.0354
24.8098 -4.3678 6.05987
24.8821 -4.47163 6.10914
24.9261 -4.53947 6.12947
24.9819 -4.57062 6.15726
25.0231 -4.80522 6.20468
24.9926 -4.80095 6.19419
25.0523 -4.6137 6.17302
25.0719 -4.7174 6.20011
25.0835 -4.81595 6.22818
25.1149 -4.90951 6.24014
25.0948 -5.00183 6.22876
25.1316 -4.98515 6.25665
25.0619 -5.01198 6.20043
25.1025 -5.05428 6.21389
25.126 -5.11534 6.2601
25.1257 -5.15929 6.20297
25.1184 -5.19566 6.13875
25.1191 -5.21322 6.05675
25.1802 -5.23617 6.04288
25.1938 -5.26636 5.9447
25.2131 -5.30921 5.84072
25.2249 -5.3739 5.73863
25.2369 -5.43659 5.63767
24.944 -5.54473 4.91323
24.9898 -5.52541 4.99396
25.0397 -5.56113 4.96419
25.2413 -5.49287 5.53335
25.2087 -5.47137 5.45075
25.1557 -5.48185 5.37432
25.155 -5.52884 5.28219
25.0863 -5.62129 4.92213
25.1848 -5.5786 5.18395
25.1503 -5.62394 5.03342
24.8856 -5.85582 4.25129
24.9305 -5.92625 4.1468
24.7923 -5.79388 4.31513
24.9968 -5.95719 4.09988
25.0629 -5.98125 4.09911
25.1419 -5.99415 4.11531
25.2136 -6.00999 4.18151
25.2983 -6.05713 4.19087
25.355 -6.10317 4.10795
25.6983 -6.28982 3.83989
25.7328 -6.35632 3.70558
25.757 -6.40624 3.59791
25.7715 -6.44991 3.51687
25.6232 -6.2398 3.91918
25.475 -6.1113 4.17728
25.5238 -6.16897 4.05851
25.5611 -6.20573 3.96665
25.7823 -6.47914 3.4623
25.8375 -6.49274 3.4548
25.9323 -6.50132 3.45271
25.8582 -6.52581 3.34373
25.8098 -6.52064 3.25084
25.8226 -6.5086 3.19446
25.8452 -6.52076 3.14848
25.9175 -6.52765 3.17216
25.9764 -6.52588 3.19282
26.0273 -6.53289 3.18287
26.1136 -6.50523 3.17215
26.1595 -6.49185 3.10559
26.2165 -6.45214 3.08364
26.1834 -6.4382 3.02596
26.1638 -6.42409 2.97743
26.216 -6.38379 2.96714
26.3298 -6.35195 2.94322
26.2757 -6.32622 2.85925
26.2714 -6.28985 2.76837
26.1689 -6.29098 2.66832
26.115 -6.26018 2.62313
26.1419 -6.22916 2.57677
26.1834 -6.19487 2.52383
26.22 -6.15526 2.46655
26.2359 -6.10773 2.4142
26.2849 -6.04844 2.37816
26.334 -5.95456 2.32335
26.2528 -5.88297 2.22868
26.1811 -5.81186 2.13232
26.1124 -5.74726 2.02969
26.0395 -5.68042 1.95157
25.9402 -5.68827 1.92913
25.8765 -5.68945 1.91433
25.8756 -5.66801 1.87042
25.8777 -5.61823 1.81289
25.7679 -5.61924 1.76277
25.5951 -5.59526 1.70685
25.6892 -5.60374 1.72624
25.4583 -5.60529 1.62055
25.4344 -5.68464 1.67396
25.4134 -5.7326 1.7022
25.3281 -5.75174 1.70766
25.2248 -5.78904 1.7014
25.1193 -5.78192 1.63841
25.0101 -5.78194 1.5675
24.9009 -5.80353 1.56198
24.8165 -5.82394 1.55448
24.7227 -5.83737 1.51282
24.6109 -5.83665 1.48259
24.5612 -5.81634 1.40662
24.4947 -5.77767 1.33411
24.4033 -5.74784 1.29458
24.3184 -5.72701 1.26785
24.2174 -5.72071 1.24195
24.0812 -5.72101 1.21859
24.0413 -5.78095 1.29872
24.0054 -5.83644 1.36048
23.9188 -5.87713 1.40055
23.7957 -5.93927 1.45031
23.6398 -5.9438 1.47793
23.481 -5.95432 1.50292
23.3647 -5.91855 1.48323
23.1566 -5.89394 1.49043
23.2883 -5.86071 1.46349
23.0197 -5.90066 1.51351
22.8981 -5.91922 1.54489
22.8281 -5.92256 1.55375
22.7788 -5.9283 1.59462
22.7343 -5.93327 1.62599
22.6902 -5.91317 1.60258
22.649 -5.86841 1.57036
22.5943 -5.87289 1.61444
22.5315 -5.87578 1.6488
22.5031 -5.93629 1.73981
22.472 -5.99762 1.83094
22.4061 -5.98109 1.88133
22.3101 -5.96959 1.94782
22.3323 -6.05903 2.04568
22.3472 -6.11103 2.1126
22.2987 -6.09025 2.12213
22.2396 -6.07069 2.1486
22.2158 -6.11427 2.23911
22.1539 -6.08844 2.26882
22.1274 -6.1143 2.35123
22.0814 -6.12701 2.41116
22.0404 -6.1066 2.46584
21.9867 -6.07805 2.51275
21.9298 -6.03516 2.55421
21.4979 -5.3222 4.07082
21.4775 -5.21412 4.05413
21.4391 -5.08694 4.02911
21.4655 -5.05454 4.07288
21.4836 -5.01878 4.10752
21.5005 -5.00912 4.15231
21.5303 -5.04074 4.20975
21.5326 -4.98617 4.23757
21.5164 -4.84907 4.19708
21.5062 -4.69318 4.14426
21.541 -4.6553 4.18481
21.5994 -4.78112 4.2803
21.6511 -4.87162 4.37836
21.7634 -5.07886 4.53485
21.7845 -5.17367 4.57582
21.707 -4.94903 4.48016
21.7954 -5.02834 4.56484
21.8643 -5.09157 4.66097
21.919 -5.11984 4.75157
21.984 -5.10932 4.81901
22.0408 -5.07237 4.88788
22.1027 -5.02557 4.94737
21.455 -5.5343 3.45997
21.434 -5.45998 3.49963
21.4379 -5.45683 3.59607
21.44 -5.4377 3.66718
21.4503 -5.41208 3.72283
21.45 -5.37804 3.77408
21.4348 -5.32163 3.8134
21.4572 -5.33419 3.88539
21.4718 -5.33228 3.94839
21.469 -5.326 4.0104
21.8729 -5.9856 2.58795
21.8175 -5.93231 2.6219
21.7966 -5.94111 2.72233
21.7619 -5.88102 2.66071
21.7049 -5.83113 2.69502
21.6862 -5.83142 2.78501
21.6561 -5.80915 2.84461
21.6215 -5.75239 2.88054
21.5822 -5.68124 2.91637
21.486 -5.58392 3.41125
21.4822 -5.58309 3.34377
21.482 -5.5705 3.2734
21.4834 -5.54666 3.19845
21.5457 -5.60566 2.96952
21.5037 -5.54818 3.04126
21.4776 -5.50503 3.11955
22.1718 -4.97026 4.99445
22.367 -4.97452 5.16375
22.4428 -4.90149 5.19871
22.3025 -4.93665 5.09175
22.5076 -4.83732 5.25548
22.5845 -4.80359 5.30256
22.6526 -4.78546 5.33965
22.6993 -4.72799 5.35437
22.7207 -4.62377 5.34483
22.7788 -4.57606 5.371
22.2399 -4.91089 5.02371
22.8092 -4.49742 5.36439
23.5109 -4.17459 5.58967
23.6057 -4.26314 5.6386
23.4025 -4.1045 5.518
23.2807 -4.06178 5.46057
23.1117 -4.16258 5.42382
22.818 -4.39303 5.3441
22.8406 -4.28148 5.31585
22.8839 -4.18353 5.31246
22.9535 -4.11489 5.33321
23.049 -4.07022 5.3642
23.1627 -4.05453 5.40017
23.5253 -4.03127 5.57016
23.6714 -3.98142 5.60324
23.7995 -3.92156 5.64145
23.9025 -3.84548 5.65689
24.0224 -3.82591 5.69303
24.1302 -3.74526 5.72373
24.2098 -3.62829 5.72491
24.3299 -3.60114 5.73863
24.4206 -3.67595 5.78948
24.5376 -3.727 5.83092
24.6597 -3.72748 5.84919
24.7272 -3.8076 5.90359
24.7244 -3.98295 5.9478
24.7304 -4.13654 5.99983
24.7218 -4.26436 6.01432
24.828 -4.21496 6.03212
24.9107 -4.29697 6.07606
24.9232 -4.40468 6.09992
24.9565 -4.49166 6.12691
25.023 -4.51608 6.14401
25.0951 -4.54262 6.16379
25.1212 -4.66605 6.19402
25.1428 -4.77514 6.2285
25.1597 -4.87231 6.24473
25.1759 -4.94932 6.27227
25.1431 -5.04999 6.25892
25.1976 -5.02229 6.29371
25.1796 -5.16035 6.25984
25.199 -5.09622 6.29832
25.1698 -5.20015 6.20594
25.172 -5.22579 6.13273
25.2294 -5.24288 6.12723
25.2403 -5.26615 6.03523
25.2518 -5.31115 5.93611
25.2676 -5.36578 5.83186
25.277 -5.43115 5.72656
25.2871 -5.49036 5.61399
24.9913 -5.58024 4.85119
24.9394 -5.60918 4.76254
24.8889 -5.57055 4.85082
25.0406 -5.63 4.79556
25.3004 -5.54355 5.4817
25.2468 -5.51766 5.41873
25.1956 -5.51124 5.37154
25.2185 -5.55425 5.31141
25.0989 -5.6922 4.71471
25.1454 -5.67431 4.86255
25.2679 -5.60475 5.22159
25.2275 -5.63763 5.09231
25.2012 -5.68625 4.9562
24.859 -5.7781 4.39071
24.9546 -5.81332 4.33553
24.97 -5.89212 4.20293
24.9825 -5.93377 4.14439
24.7864 -5.74054 4.4377
25.0238 -5.93416 4.15215
25.0895 -5.93268 4.16915
25.1493 -5.9444 4.21106
25.2027 -5.95025 4.28175
25.267 -6.00495 4.2822
25.3478 -6.02559 4.30756
25.3979 -6.06857 4.23912
25.6948 -6.23208 4.00184
25.7663 -6.26615 3.95359
25.788 -6.31639 3.83349
25.8124 -6.37961 3.72075
25.8343 -6.42272 3.61736
25.842 -6.46775 3.53563
25.6126 -6.19665 4.05183
25.4779 -6.05717 4.32209
25.5498 -6.08664 4.32002
25.5812 -6.14362 4.18398
25.9172 -6.46347 3.53647
25.9951 -6.47196 3.56321
26.0515 -6.48457 3.54627
26.0445 -6.50334 3.46475
25.9604 -6.51554 3.38091
25.9086 -6.51609 3.30974
25.8889 -6.51759 3.25304
25.8954 -6.52626 3.20896
25.9593 -6.53022 3.22519
26.0245 -6.53343 3.2387
26.1001 -6.52653 3.24472
26.1805 -6.49968 3.25805
26.2166 -6.4805 3.22624
26.2135 -6.47942 3.17414
26.2571 -6.46414 3.13921
26.3298 -6.43595 3.12122
26.2841 -6.41741 3.06909
26.2541 -6.40713 3.01547
26.3387 -6.37703 3.00944
26.3956 -6.31183 2.91069
26.4459 -6.34698 3.01532
26.4618 -6.31889 2.97129
26.3836 -6.29093 2.86163
26.4473 -6.25992 2.83868
26.4186 -6.24675 2.75182
26.2932 -6.23951 2.68667
