22.5135 -17.5373 -0.903078
22.5742 -17.596 -1.07319
22.2281 -17.4077 -0.604728
22.4066 -17.5312 -0.898763
23.149 -17.9739 -2.15223
23.2069 -18.0632 -2.31832
23.3602 -18.0578 -2.4245
23.8467 -18.1332 -2.71378
23.6385 -18.0626 -2.622
23.4646 -18.1014 -2.57209
24.0266 -18.2095 -2.75382
24.1463 -18.2459 -2.69757
24.3176 -18.3389 -2.74945
24.5024 -18.4387 -2.85253
24.64 -18.4418 -2.72167
24.7797 -18.4797 -2.68324
22.8963 -17.9571 -1.86933
22.9658 -18.0498 -2.11738
22.6367 -17.7278 -1.34934
22.6515 -17.7884 -1.43328
22.6574 -17.8549 -1.52093
22.7018 -18.0066 -1.75878
25.2458 -18.5373 -2.49605
24.872 -18.5439 -2.7159
25.0442 -18.6071 -2.68702
25.5335 -18.5714 -2.37795
25.8536 -18.6335 -2.32698
26.1982 -18.6729 -2.25424
26.4388 -18.6553 -2.08199
26.5585 -18.6148 -1.92145
26.7895 -18.606 -1.7749
27.0468 -18.6447 -1.71189
27.3052 -18.5661 -1.43666
28.0782 -17.4644 2.55539
28.2353 -17.5838 2.27347
28.7779 -18.1573 0.631935
28.7854 -18.141 0.806176
28.7987 -18.2441 0.408269
28.8328 -18.2548 0.935841
28.9008 -18.4026 1.14194
28.828 -18.3163 1.38842
28.5103 -17.9175 1.95568
28.7923 -18.3429 1.64143
28.6727 -18.2119 1.86603
28.3707 -17.788 2.17933
28.6695 -18.3183 0.0272233
28.7334 -18.2774 0.215712
28.197 -18.4775 -0.642745
28.3601 -18.4444 -0.452135
28.5481 -18.4249 -0.260011
27.9693 -17.3829 2.84894
27.9203 -17.4872 3.13261
27.7452 -17.3752 3.50496
26.4261 -16.3695 4.70504
27.5667 -17.3395 3.95386
27.6738 -17.5068 3.80246
27.4681 -17.3905 4.16389
27.3585 -17.2189 4.26964
27.2089 -17.1796 4.47465
27.0196 -17.0155 4.61168
26.8567 -16.8279 4.68384
26.6869 -16.6387 4.72902
26.4686 -16.5319 4.85431
26.3436 -16.3733 4.85057
25.9161 -16.2385 4.96086
26.1905 -16.3101 4.82858
25.6804 -16.2082 5.09985
25.501 -16.1721 5.06647
25.2649 -16.1645 5.0581
25.0187 -16.1518 4.99298
24.7799 -16.1789 4.97786
24.5344 -16.2302 4.94218
24.2413 -16.2375 4.85897
24.2319 -16.1711 4.7957
23.9835 -16.1657 4.73487
23.6911 -16.1742 4.50334
23.485 -16.1863 4.48954
23.3043 -16.2012 4.35281
23.3182 -16.2101 4.23819
23.3084 -16.2322 4.1405
23.1646 -16.2294 4.12646
23.0245 -16.2351 4.01815
23.6916 -16.1846 4.60511
22.1366 -16.4359 3.04625
22.0191 -16.4509 2.78356
21.7135 -16.4716 2.7128
21.5578 -16.4956 2.48458
22.1717 -16.3537 3.26197
22.5065 -16.2386 3.68043
22.2496 -16.2697 3.46894
22.8644 -16.232 3.93676
22.7005 -16.1797 3.93941
21.3651 -16.5095 2.39219
21.3172 -16.5192 2.15803
21.231 -16.6292 1.81355
21.1713 -16.579 1.99671
21.1019 -16.6548 1.77375
20.9991 -16.7039 1.57811
21.0539 -16.8023 1.27784
21.3688 -16.7731 1.20074
21.4724 -16.8568 0.90166
27.556 -18.6051 -1.28493
27.8294 -18.5736 -1.05727
28.0341 -18.5681 -0.868697
21.6341 -16.9989 0.373442
21.4132 -16.8766 0.740982
21.4261 -16.9312 0.638177
21.4955 -16.9836 0.494766
21.5878 -17.0772 0.27081
21.7274 -17.1166 0.119487
21.7042 -17.2079 0.0307772
21.9077 -17.2745 -0.223008
22.0616 -17.3639 -0.405979
22.5173 -17.6608 -1.14329
22.2704 -17.5473 -0.827658
22.1057 -17.4691 -0.590228
22.3902 -17.6095 -0.987251
23.1069 -18.1974 -2.42896
23.3063 -18.1392 -2.51496
23.7434 -18.1517 -2.7871
23.9688 -18.2312 -2.85237
23.5776 -18.1495 -2.69997
23.421 -18.2095 -2.70363
24.2114 -18.3026 -2.84134
24.5635 -18.5294 -3.04789
24.7311 -18.5751 -2.91085
24.7322 -18.5181 -2.79202
24.3442 -18.3821 -2.99217
22.7651 -18.1517 -2.04158
22.8899 -18.2322 -2.27942
22.5539 -17.7781 -1.31437
22.4643 -17.8822 -1.37323
22.4358 -18.0556 -1.57695
22.5646 -18.1732 -1.87087
25.2708 -18.6449 -2.6245
25.3848 -18.6131 -2.5119
24.8823 -18.6063 -2.81429
25.1467 -18.6934 -2.73986
25.0096 -18.6903 -2.80416
25.5332 -18.6824 -2.53608
25.7539 -18.6962 -2.47894
25.9543 -18.7202 -2.45633
26.2413 -18.7517 -2.38377
26.4743 -18.7214 -2.20403
26.7153 -18.6832 -1.97145
26.9584 -18.7403 -1.93782
27.2032 -18.7273 -1.75575
27.3407 -18.6474 -1.56732
28.2316 -17.6705 2.44001
28.0775 -17.5682 2.73843
28.8296 -18.2448 0.71722
28.8043 -18.2444 0.587507
28.8049 -18.3431 0.184973
28.8991 -18.4425 0.370399
28.8747 -18.3409 0.574255
28.9681 -18.5098 0.955097
28.9177 -18.4146 0.764547
29.013 -18.628 1.1036
29.0113 -18.6805 1.28118
28.9494 -18.6447 1.50015
28.5153 -18.1071 2.11741
28.9344 -18.6646 1.6662
28.8339 -18.5756 1.8126
28.7152 -18.4396 1.98811
28.3389 -17.8795 2.29074
28.7636 -18.4369 -0.0243005
28.2037 -18.573 -0.742287
28.4077 -18.5478 -0.529504
28.5949 -18.5368 -0.334969
28.6919 -18.5093 -0.198067
27.8313 -17.6148 3.49183
28.0802 -17.7683 2.86881
27.9711 -17.8207 3.21898
27.5699 -17.4475 4.00358
27.7741 -17.6891 3.70328
27.7203 -17.7835 3.92684
27.5795 -17.5921 4.09484
27.4618 -17.6151 4.37494
27.3442 -17.4006 4.43468
27.237 -17.4015 4.62873
27.0868 -17.2934 4.76249
26.8601 -17.0558 4.8772
26.6939 -16.7972 4.85064
26.558 -16.6605 4.87026
26.411 -16.6267 5.00641
26.2599 -16.4669 4.99349
26.1132 -16.3121 5.00105
25.8634 -16.2901 5.11992
25.457 -16.2038 5.14772
25.6241 -16.2561 5.20864
25.2473 -16.2126 5.15333
25.0274 -16.1969 5.08093
24.7629 -16.292 5.06506
24.4102 -16.3712 4.98676
24.1288 -16.3628 4.9157
23.9438 -16.2906 4.83014
23.7024 -16.2541 4.72032
23.4285 -16.2495 4.58152
23.2902 -16.1972 4.44494
23.1024 -16.2169 4.34657
23.0916 -16.21 4.21919
23.0104 -16.194 4.11478
22.8984 -16.1949 4.03072
21.9881 -16.4 3.07198
21.8964 -16.4062 2.90986
21.5871 -16.4231 2.86951
21.4466 -16.4635 2.65021
21.7411 -16.4213 2.90844
22.0324 -16.3015 3.32026
21.928 -16.3595 3.16486
22.4655 -16.16 3.80125
22.2749 -16.1809 3.62131
22.0633 -16.2126 3.44432
22.8893 -16.1858 4.10501
22.7655 -16.1944 4.08677
22.6081 -16.2217 4.05997
22.5347 -16.1652 3.93903
21.2762 -16.4843 2.5362
21.1941 -16.5307 2.28393
21.022 -16.5477 2.15014
21.0238 -16.6104 1.91859
20.9467 -16.6612 1.77602
20.8601 -16.7014 1.65854
20.8221 -16.7845 1.49466
20.8448 -16.8641 1.29138
20.9271 -16.862 1.07598
21.0874 -16.8477 0.983075
21.2403 -16.8274 1.0439
21.2658 -16.8595 0.855753
27.5117 -18.7064 -1.49985
27.7197 -18.6818 -1.24324
27.9139 -18.639 -1.04753
28.0626 -18.6576 -0.919115
21.3315 -16.9211 0.732071
21.3524 -16.9859 0.633191
21.4073 -17.0679 0.464602
21.477 -17.1861 0.249211
21.5787 -17.3337 0.020503
21.7935 -17.4052 -0.256276
21.9616 -17.3946 -0.396378
22.37 -17.7009 -1.07556
22.154 -17.6085 -0.823505
21.9755 -17.5256 -0.55301
22.9695 -18.3236 -2.47885
23.1157 -18.3476 -2.61352
23.2535 -18.2412 -2.61154
23.7949 -18.2618 -2.90158
23.6111 -18.2287 -2.8137
23.9929 -18.3374 -2.94716
24.1428 -18.3253 -2.93417
23.2741 -18.3425 -2.75095
23.4683 -18.35 -2.85952
24.4517 -18.6606 -3.11325
24.6653 -18.6829 -3.07527
24.791 -18.6683 -3.00221
24.3227 -18.4754 -3.08792
24.9221 -18.6767 -2.89715
24.1575 -18.3975 -3.01501
22.6843 -18.3012 -2.13216
22.8037 -18.4029 -2.38066
22.2906 -17.9705 -1.30097
22.2327 -17.8002 -1.07068
22.2184 -18.1128 -1.42799
22.3762 -18.1853 -1.70447
22.4343 -18.3363 -1.92315
25.326 -18.7362 -2.72049
25.1256 -18.7649 -2.83898
25.5247 -18.7517 -2.67095
25.7081 -18.7416 -2.58007
25.879 -18.7885 -2.59788
26.0782 -18.7836 -2.52544
26.264 -18.8337 -2.49067
26.4987 -18.8082 -2.32781
26.7203 -18.7803 -2.13048
26.913 -18.8126 -2.06897
27.1343 -18.8186 -1.91714
27.3826 -18.7844 -1.68983
27.356 -18.7125 -1.63998
28.2737 -17.8338 2.45232
28.1715 -17.7367 2.60799
28.8705 -18.4541 0.156516
28.9418 -18.6256 0.239061
29.0172 -18.6929 0.445314
28.9677 -18.5617 0.603357
29.0306 -18.6808 0.81279
29.0839 -18.7787 1.00172
29.0965 -18.8334 1.14899
29.1462 -19.041 1.2697
29.089 -18.983 1.43707
29.0337 -18.9433 1.60695
28.6382 -18.4309 2.15552
28.4952 -18.2729 2.24302
28.3727 -18.0632 2.37036
28.9839 -18.8857 1.75785
28.9302 -18.8459 1.87816
28.8402 -18.6926 1.94833
28.7876 -18.6861 2.08858
28.7865 -18.5665 -0.104339
28.8704 -18.5728 0.0466988
28.2481 -18.6657 -0.774282
28.5517 -18.6181 -0.440879
28.4333 -18.686 -0.627942
28.7071 -18.6439 -0.290055
27.8706 -17.8686 3.59539
28.2369 -17.9175 2.61329
28.1798 -18.0257 2.85986
28.0671 -17.8944 3.00059
28.0694 -18.0017 3.09776
28.016 -17.9805 3.23857
27.9645 -17.9948 3.37184
27.8215 -18.0451 3.87195
27.7018 -17.9808 4.11057
27.5774 -17.8468 4.27285
27.4439 -17.8615 4.57341
27.3245 -17.6345 4.65344
27.1909 -17.5313 4.7811
27.0731 -17.5922 4.9802
26.9639 -17.3257 4.94927
26.7087 -17.1076 5.07133
26.6442 -16.9082 5.00316
26.8265 -17.2755 5.06607
26.5568 -16.7454 4.96056
26.3388 -16.7219 5.14422
26.2223 -16.5907 5.1326
26.4797 -16.8051 5.08691
26.0501 -16.4459 5.14532
25.8906 -16.4129 5.18692
25.7723 -16.3984 5.24594
25.3813 -16.2901 5.24966
25.6035 -16.4131 5.33773
25.0847 -16.29 5.18822
24.6358 -16.4527 5.09479
24.8793 -16.4271 5.18846
24.4149 -16.5722 5.12157
24.1627 -16.4972 5.0305
23.9199 -16.4612 4.90397
23.737 -16.3679 4.79973
23.5211 -16.3801 4.70025
23.2269 -16.4271 4.58069
23.1583 -16.291 4.44205
22.9604 -16.2941 4.33009
22.8733 -16.2264 4.20587
21.8487 -16.3872 3.01377
21.7305 -16.3568 3.05731
21.5762 -16.356 3.01478
21.4318 -16.3962 2.86841
21.3381 -16.4399 2.69844
21.9443 -16.2773 3.34767
21.8581 -16.3075 3.24195
22.3178 -16.1447 3.75825
22.4198 -16.1616 3.87136
22.181 -16.1443 3.67864
22.1096 -16.1406 3.55408
21.9567 -16.1493 3.47605
21.8761 -16.2216 3.34402
22.4834 -16.1898 3.9585
22.7379 -16.3425 4.2361
22.4344 -16.3681 4.09392
22.3804 -16.232 3.94044
21.2666 -16.4202 2.73983
21.1416 -16.4961 2.46336
21.03 -16.5019 2.40839
20.9266 -16.5476 2.23345
20.8812 -16.6154 2.05258
20.9314 -16.6261 1.93833
20.8025 -16.6761 1.83903
20.763 -16.7847 1.69931
20.6752 -17.0411 1.70071
20.7183 -17.0379 1.47594
20.7231 -17.1735 1.33016
20.8274 -17.0952 1.16943
20.8774 -17.1853 0.955637
21.0037 -16.96 0.877944
21.1442 -16.9295 0.804824
21.2532 -16.9358 0.738223
27.657 -18.8069 -1.44145
27.8941 -18.7224 -1.14877
28.0632 -18.7591 -0.995807
21.2486 -17.0461 0.63462
21.3336 -17.142 0.440636
21.3627 -17.248 0.295498
21.4559 -17.2899 0.174299
21.4347 -17.3881 0.0645982
21.6299 -17.5131 -0.234512
21.8329 -17.6197 -0.522313
22.0232 -17.7093 -0.802942
22.9305 -18.4603 -2.58393
23.0907 -18.505 -2.75107
23.7395 -18.3527 -2.93473
23.8675 -18.3736 -2.97557
23.6475 -18.31 -2.89408
24.0026 -18.4156 -3.01622
23.2692 -18.4674 -2.86632
23.3966 -18.5369 -2.98785
23.6111 -18.4105 -2.95017
24.4243 -18.8273 -3.13424
24.6423 -18.8039 -3.08793
24.2318 -18.6145 -3.11001
24.2092 -18.7958 -3.16029
24.8513 -18.7877 -3.03814
24.9879 -18.776 -2.94867
24.0917 -18.5099 -3.08142
22.5714 -18.4653 -2.23774
22.7174 -18.5731 -2.48345
22.0834 -17.9299 -1.09036
22.0991 -18.2348 -1.44741
22.2634 -18.2566 -1.65465
22.0389 -18.0924 -1.22726
22.2093 -18.3897 -1.72133
22.3241 -18.5229 -2.03737
25.2946 -18.7846 -2.80608
25.4319 -18.8074 -2.76259
25.3068 -18.8253 -2.8486
25.1523 -18.8423 -2.88925
25.6561 -18.8217 -2.68865
25.8416 -18.8637 -2.66517
26.0628 -18.8779 -2.60506
26.2754 -18.9372 -2.53414
26.428 -18.9121 -2.40461
26.6179 -18.9048 -2.32341
26.7199 -18.8462 -2.23444
26.7983 -18.8275 -2.14878
26.8603 -18.8671 -2.14813
27.0025 -18.8664 -2.06387
27.1462 -18.9393 -2.00633
27.3462 -18.8915 -1.81096
27.4763 -18.8605 -1.65364
29.0035 -18.8123 0.232511
29.0387 -18.8094 0.338879
28.9495 -18.7412 0.103462
29.1219 -18.9751 0.484693
29.1052 -18.9008 0.672269
29.1696 -19.0115 0.909347
29.1892 -19.0775 1.10611
29.2935 -19.3821 1.26461
29.2201 -19.2614 1.40346
29.2087 -19.3048 1.58697
29.1081 -19.1445 1.72281
28.7097 -18.6935 2.27979
28.5666 -18.4679 2.29527
28.453 -18.3364 2.41873
28.3222 -18.1758 2.60792
29.0677 -19.1363 1.88745
28.9186 -18.9354 2.00801
28.8615 -18.9607 2.18817
28.8714 -18.7305 -0.0872912
28.2487 -18.7968 -0.884195
28.5594 -18.7189 -0.4755
28.4406 -18.8438 -0.674164
28.6347 -18.8459 -0.445794
28.781 -18.8263 -0.248487
27.9628 -18.1642 3.55747
28.2621 -18.3045 2.84766
28.1523 -18.1893 3.05274
28.0648 -18.1307 3.26516
27.8808 -18.3015 3.8643
27.7339 -18.179 4.13498
27.6468 -18.0604 4.31225
27.5332 -18.0372 4.4832
27.3196 -17.9091 4.84353
27.4348 -18.1209 4.74161
27.2174 -17.7213 4.85946
27.0693 -17.8529 5.18772
26.918 -17.6495 5.21479
26.9215 -17.4549 5.07129
27.1868 -17.8912 5.03328
26.6638 -17.3133 5.2617
26.5571 -17.0209 5.17014
26.8187 -17.445 5.17755
26.3884 -16.9018 5.24421
26.2304 -16.7676 5.27511
26.1006 -16.6235 5.26501
25.9295 -16.5632 5.30726
25.7606 -16.5475 5.38129
25.4079 -16.4547 5.35916
25.2117 -16.4004 5.28878
25.6628 -16.5387 5.428
25.5469 -16.5993 5.44957
25.0591 -16.3969 5.23828
24.6975 -16.6091 5.2287
24.8768 -16.5506 5.2552
25.0507 -16.5318 5.32262
24.1332 -16.7513 5.15942
24.4829 -16.8116 5.28872
24.0031 -16.5781 5.02928
23.8165 -16.6619 4.99398
23.6446 -16.4985 4.84145
23.3901 -16.5264 4.72315
23.2053 -16.5543 4.64266
22.9607 -16.6499 4.57081
22.9441 -16.4213 4.40817
21.6977 -16.264 3.18281
21.5218 -16.3089 3.06546
21.3869 -16.2906 3.00818
22.3029 -16.1771 3.83239
22.2151 -16.1579 3.77254
22.1212 -16.1439 3.71548
22.0335 -16.123 3.6237
21.8859 -16.1526 3.5524
21.7724 -16.1673 3.36189
22.6225 -16.5501 4.32962
22.2503 -16.3089 3.93324
22.2974 -16.5852 4.16462
22.1777 -16.4338 3.98431
22.173 -16.2253 3.80486
21.2421 -16.364 2.8819
21.1395 -16.4348 2.66879
21.028 -16.4913 2.59264
20.9221 -16.5335 2.38351
20.8475 -16.6317 2.22582
20.7797 -16.7114 2.02342
20.7176 -16.8432 1.85998
20.6269 -17.0914 1.93807
20.6037 -17.1275 1.81446
20.5321 -17.3285 1.83866
20.5664 -17.3226 1.65698
20.6519 -17.1573 1.58209
20.6447 -17.2685 1.50407
20.629 -17.4187 1.40414
20.7161 -17.4184 1.18838
20.967 -17.3611 0.673696
20.9999 -17.1377 0.775389
20.8278 -17.5771 0.878274
21.0887 -17.0656 0.70324
27.5714 -18.9506 -1.64007
27.84 -18.9254 -1.34915
27.8949 -18.8129 -1.21252
28.0302 -18.8558 -1.10677
21.224 -17.2006 0.485107
21.3048 -17.3345 0.269948
21.3449 -17.4599 0.0908281
21.4748 -17.5995 -0.211684
21.6884 -17.7608 -0.569475
21.8818 -17.8202 -0.814093
22.8753 -18.618 -2.67487
22.9979 -18.6339 -2.78175
23.126 -18.6596 -2.87902
23.7474 -18.426 -2.99422
23.8633 -18.5104 -3.05699
23.2661 -18.7211 -3.00391
23.444 -18.7482 -3.09628
23.6279 -18.5326 -3.04651
24.2375 -19.0041 -3.17606
24.5483 -18.9552 -3.10953
24.8871 -18.9943 -3.03046
24.0284 -18.69 -3.13629
23.9494 -18.9282 -3.18962
24.102 -18.9479 -3.17017
25.0812 -18.8981 -2.95588
23.9693 -18.5856 -3.09433
22.4539 -18.6551 -2.33754
22.6078 -18.7747 -2.60459
21.9402 -18.0052 -1.02276
21.8845 -18.1481 -1.16645
21.9994 -18.3593 -1.4669
22.0854 -18.5275 -1.77923
22.1751 -18.7124 -2.11494
25.5278 -18.9005 -2.79585
25.3089 -18.9278 -2.86582
25.7204 -18.9153 -2.6997
25.9029 -18.9937 -2.67026
26.1365 -19.0702 -2.59807
26.3067 -19.0502 -2.50318
26.4581 -19.0284 -2.40845
26.5461 -18.9612 -2.3569
26.7049 -19.0197 -2.27365
26.8058 -18.9214 -2.22222
26.9569 -18.9299 -2.13142
26.9657 -19.0145 -2.14778
27.2024 -19.1242 -2.00868
27.3875 -19.0087 -1.86443
29.0262 -18.9191 0.164054
29.1147 -19.0857 0.324538
28.9643 -18.9255 0.0346459
29.2296 -19.2712 0.516108
29.2296 -19.2385 0.656492
29.2667 -19.2563 0.82507
29.3221 -19.4281 1.05727
29.3534 -19.577 1.21572
29.3991 -19.6958 1.33129
29.3368 -19.5598 1.46322
29.3631 -19.7786 1.68783
29.2104 -19.4292 1.78594
28.6732 -18.7951 2.40944
28.5582 -18.6313 2.46316
28.772 -18.964 2.36966
28.3907 -18.4666 2.64189
29.1477 -19.4489 1.94665
29.0152 -19.2674 2.09477
28.8874 -19.2217 2.29298
28.9003 -18.9845 -0.140057
28.1002 -18.9575 -1.09374
28.2837 -18.9089 -0.86926
28.3527 -19.0704 -0.865159
28.5103 -18.9386 -0.621418
28.5907 -19.0388 -0.552737
28.754 -19.0018 -0.331726
28.0925 -18.3318 3.33363
28.0406 -18.463 3.57222
28.3347 -18.5624 2.90146
28.2014 -18.4084 3.1057
28.1312 -18.2682 3.18722
27.9468 -18.5328 3.878
27.7938 -18.3993 4.15205
27.613 -18.291 4.48687
27.2734 -18.1952 5.1412
27.4809 -18.4025 4.90014
26.9568 -17.8688 5.3425
27.1531 -18.014 5.18231
27.0572 -18.0832 5.36298
26.771 -17.5511 5.31714
26.8032 -17.7847 5.45613
26.6467 -17.5884 5.48062
26.5187 -17.4133 5.47889
26.4477 -17.1709 5.34501
26.2686 -17.0498 5.40945
26.0743 -16.8849 5.45404
25.8752 -16.7951 5.49344
25.6999 -16.7373 5.50844
25.4102 -16.6047 5.43932
25.2693 -16.5438 5.4033
25.5795 -16.8432 5.60417
25.4749 -16.7409 5.52962
24.8887 -16.6823 5.33416
24.7145 -16.8144 5.41601
25.0524 -16.7629 5.44329
25.1812 -16.6736 5.43278
24.0464 -16.9921 5.3312
23.8401 -16.8946 5.15563
24.3221 -17.0577 5.39356
24.6351 -17.0539 5.5228
23.6611 -16.7999 5.02722
23.5089 -16.6981 4.87524
23.2358 -16.682 4.72868
23.0462 -16.8372 4.75797
22.7678 -17.0159 4.71563
22.63 -16.7848 4.49895
21.5782 -16.2119 3.19842
21.4454 -16.2333 3.22529
21.3182 -16.3078 3.03913
21.994 -16.1723 3.68875
21.7425 -16.1614 3.50493
21.8293 -16.2491 3.61586
21.6156 -16.1884 3.38175
22.369 -16.7896 4.35872
22.1101 -16.3361 3.85648
22.1485 -16.8008 4.20054
22.0569 -16.6415 4.02051
21.9649 -16.4472 3.85243
21.9965 -16.307 3.73055
21.1665 -16.414 2.91028
21.0129 -16.5305 2.74126
20.878 -16.654 2.48651
20.7679 -16.7782 2.21468
20.7251 -16.8748 2.03178
20.6603 -17.0167 2.18024
20.5553 -17.2487 2.12778
20.4793 -17.4168 2.03353
20.3791 -17.7174 1.97733
20.4175 -17.6774 1.76938
20.5256 -17.5316 1.56283
20.5171 -17.7339 1.4105
20.6169 -17.8299 1.12384
20.9731 -17.702 0.515084
21.0556 -17.5151 0.417704
21.0633 -17.3552 0.519256
21.0781 -17.2341 0.597533
20.8394 -17.8352 0.699925
20.7261 -17.8555 0.884791
27.5876 -19.1076 -1.74317
27.7433 -19.0715 -1.53121
27.9093 -19.0554 -1.33454
21.1903 -17.403 0.327574
21.3384 -17.6525 -0.0330693
21.4355 -17.7357 -0.267521
21.5402 -17.8496 -0.478946
21.8105 -17.967 -0.875547
21.6794 -18.0447 -0.854772
22.8577 -18.7514 -2.78348
22.9226 -18.8765 -2.8905
23.1139 -18.8178 -2.96587
23.8521 -18.6721 -3.12722
23.6819 -18.6669 -3.11961
23.2119 -18.8941 -3.04953
23.4699 -18.9218 -3.14442
23.5735 -18.8149 -3.13619
23.3079 -19.0417 -3.13883
23.994 -19.0823 -3.22922
24.0442 -19.1867 -3.25026
24.1884 -19.2217 -3.24605
24.4245 -19.1264 -3.14744
24.6531 -19.0839 -3.08685
24.8142 -19.1998 -3.03354
25.1034 -19.2849 -2.93504
25.2753 -19.0866 -2.89151
23.8399 -18.8263 -3.1622
23.664 -19.0544 -3.21135
23.8019 -19.1511 -3.24289
22.3327 -18.8622 -2.40797
22.4209 -19.0024 -2.57861
22.633 -18.9998 -2.7583
21.8007 -18.2974 -1.20788
21.8995 -18.4719 -1.50085
21.9186 -18.6763 -1.75236
22.004 -18.8836 -2.04782
22.153 -18.9363 -2.25303
25.5051 -19.0367 -2.79897
25.7083 -19.0247 -2.70306
25.9136 -19.2283 -2.65972
26.1889 -19.2935 -2.58538
26.3899 -19.1966 -2.48221
26.6548 -19.1844 -2.32756
26.9461 -19.194 -2.1484
27.161 -19.26 -2.03092
27.372 -19.3255 -1.92242
27.417 -19.1669 -1.85946
29.0919 -19.1637 0.13771
29.1945 -19.3801 0.287503
29.2754 -19.5341 0.46041
29.0122 -19.1167 -0.0115244
29.3675 -19.6363 0.684604
29.3207 -19.4681 0.78006
29.3617 -19.5647 0.910958
29.4268 -19.7489 1.20234
29.4444 -19.8069 1.05078
29.4893 -19.9607 1.34131
29.4416 -19.8936 1.4907
29.4055 -20.0461 1.88448
29.2761 -19.7247 1.91109
29.4922 -20.0754 1.62684
29.4679 -20.1193 1.74855
28.6459 -18.9119 2.53581
28.4725 -18.77 2.73221
28.7805 -19.2178 2.48995
29.149 -19.628 2.09274
28.9942 -19.4874 2.2651
28.9061 -19.3737 2.38296
28.8633 -19.1976 -0.250926
28.9702 -19.222 -0.107277
28.0548 -19.1478 -1.21589
28.1674 -19.2955 -1.10606
28.3669 -19.3616 -0.920927
28.5331 -19.253 -0.668593
28.7089 -19.2053 -0.434688
28.1504 -18.5156 3.30723
28.169 -18.6855 3.3993
28.0662 -18.669 3.65064
28.2487 -18.6489 3.13585
28.3733 -18.7622 2.97559
28.0043 -18.758 3.85787
27.862 -18.6129 4.13713
27.7424 -18.4962 4.39692
27.6512 -18.4603 4.54955
27.5928 -18.4666 4.68548
27.3575 -18.5199 5.24662
27.1853 -18.4964 5.45257
27.1176 -18.2977 5.42671
27.5759 -18.5842 4.85225
27.4944 -18.655 5.10433
26.8968 -17.9933 5.4827
26.9955 -18.264 5.53941
26.9078 -18.1498 5.55975
26.7512 -18.0545 5.6794
26.6403 -17.8229 5.64272
26.4767 -17.679 5.70519
26.3675 -17.3505 5.58411
26.1871 -17.2516 5.63797
26.0499 -17.1775 5.65823
25.9726 -17.0075 5.61115
25.8873 -17.0267 5.662
25.797 -16.9318 5.62805
25.6997 -17.0043 5.69434
25.3318 -16.7556 5.52726
25.5952 -17.1036 5.79503
25.4602 -16.9695 5.70813
24.8931 -16.874 5.49948
24.7822 -16.9645 5.50287
25.1831 -16.8233 5.55678
25.0787 -16.9991 5.62721
24.0235 -17.1149 5.39894
23.8731 -17.1001 5.34412
24.1359 -17.136 5.44014
23.6877 -17.0343 5.20832
23.6242 -16.9206 5.11308
24.499 -17.2739 5.62759
24.2561 -17.2914 5.58572
24.8723 -17.0889 5.61914
24.7881 -17.3489 5.78012
23.5056 -16.8745 4.99757
23.2672 -16.8843 4.90988
23.027 -17.0134 4.87474
22.4541 -16.9931 4.51912
22.9625 -17.186 4.92925
22.6917 -17.4013 4.95043
22.3961 -17.2877 4.67815
21.5311 -16.2365 3.40323
21.4026 -16.3337 3.34928
21.3157 -16.3309 3.15293
21.6575 -16.244 3.50704
21.849 -16.3703 3.71105
21.6612 -16.3938 3.63766
22.1058 -17.1049 4.39013
21.8993 -16.8948 4.11977
21.8238 -16.6773 3.88164
21.7841 -16.487 3.7736
21.2369 -16.4667 3.19084
21.0878 -16.6117 2.97639
20.9443 -16.7069 2.75975
20.8269 -16.8816 2.6166
20.7383 -16.9114 2.4015
20.6044 -17.1927 2.37422
20.5802 -17.1989 2.23015
20.4813 -17.4368 2.27869
20.4713 -17.4552 2.154
20.3512 -17.7734 2.20183
20.2509 -18.0479 2.10547
20.2495 -18.0955 1.9465
20.3287 -17.9953 1.75579
20.4248 -17.8077 1.62712
20.3474 -18.1046 1.5909
20.4638 -18.0617 1.35424
20.5104 -18.2178 1.14675
20.6523 -18.0595 0.961817
20.8975 -18.069 0.423301
21.0651 -17.9796 0.181551
21.1111 -17.7491 0.213328
21.1962 -17.633 0.184804
20.7549 -18.0744 0.730152
27.5761 -19.3041 -1.75203
27.7456 -19.2444 -1.60846
27.8727 -19.1698 -1.43428
21.2766 -17.8977 -0.112836
21.4196 -17.8785 -0.344761
21.5258 -18.0565 -0.685562
21.6554 -18.2425 -0.974386
22.7733 -19.1018 -2.91293
23.0022 -18.9925 -2.99468
23.6975 -18.8242 -3.15341
23.0931 -19.1173 -3.09018
23.4498 -19.09 -3.20103
23.5686 -18.9372 -3.17326
23.1691 -19.2707 -3.15123
23.2957 -19.2892 -3.21484
23.8216 -19.3343 -3.27752
23.9821 -19.3799 -3.25802
24.1512 -19.3992 -3.2505
24.3483 -19.3319 -3.17326
24.5772 -19.2481 -3.0945
24.723 -19.348 -3.03794
24.9029 -19.35 -2.98071
25.0354 -19.5192 -2.9259
25.2615 -19.5812 -2.85094
25.4517 -19.3807 -2.80813
25.5226 -19.1748 -2.77505
23.4367 -19.3058 -3.27185
23.5881 -19.3747 -3.29078
22.1765 -19.1072 -2.44021
22.311 -19.259 -2.64772
22.5247 -19.288 -2.82656
21.7181 -18.487 -1.2751
21.7154 -18.7933 -1.60449
21.8622 -18.872 -1.86168
21.8826 -19.03 -2.02812
22.0131 -19.0718 -2.21665
25.6566 -19.1353 -2.72716
25.6906 -19.3194 -2.72725
25.8835 -19.541 -2.71444
26.1264 -19.5558 -2.6295
26.4034 -19.4923 -2.48564
26.6128 -19.3499 -2.39456
26.8518 -19.3878 -2.25116
27.1513 -19.4314 -2.07386
27.452 -19.6091 -1.91492
27.6493 -19.5346 -1.78206
29.0887 -19.3877 0.0111109
29.1879 -19.4954 0.183272
29.3003 -19.7185 0.334559
29.4069 -19.8664 0.590789
29.3596 -19.8584 0.482062
29.5149 -20.1749 0.759099
29.4826 -19.9407 0.911576
29.3943 -19.6723 0.838513
29.4089 -19.7538 0.926211
29.4983 -19.9832 1.20989
29.5678 -20.1838 1.13899
29.5592 -20.2227 1.48958
29.5574 -20.1725 1.30816
29.5159 -20.3029 1.8498
29.4528 -20.3336 2.04533
29.2839 -19.9663 2.07867
29.5631 -20.3353 1.69888
28.5917 -19.1042 2.74006
28.4402 -18.9369 2.92538
28.9091 -19.5337 2.47243
28.7538 -19.3682 2.65735
29.1025 -19.8123 2.29973
28.8268 -19.3657 -0.360604
28.9756 -19.4883 -0.202297
27.9566 -19.3707 -1.39092
28.2145 -19.537 -1.15855
28.4261 -19.5772 -0.923903
28.5327 -19.4519 -0.761507
28.6972 -19.4306 -0.554515
28.3014 -18.8951 3.17871
28.1551 -18.8942 3.53351
27.9599 -18.8263 4.16292
28.1253 -19.0139 3.81038
27.8184 -18.6803 4.38152
27.7023 -18.6137 4.63076
27.3701 -18.7478 5.4066
27.2882 -18.6166 5.44241
27.2037 -18.7163 5.64586
27.0576 -18.6094 5.71634
27.0208 -18.4313 5.61983
27.6364 -18.8307 4.90934
27.5069 -18.8968 5.25147
26.8456 -18.3226 5.74638
26.6372 -18.2803 5.9725
26.5458 -17.9998 5.86423
26.3713 -17.9319 6.00461
26.2602 -17.6362 5.84681
26.0871 -17.4844 5.87447
25.9683 -17.2591 5.80907
25.8196 -17.205 5.82132
25.7016 -17.2704 5.9153
25.2829 -17.0119 5.71797
25.5951 -17.3752 6.00172
25.5123 -17.2232 5.88286
25.4007 -17.2148 5.87961
25.1865 -17.1683 5.79502
25.0354 -17.2457 5.7921
24.0267 -17.2241 5.49504
23.8426 -17.3003 5.46242
23.6554 -17.1972 5.31482
23.4346 -17.0679 5.13479
24.5013 -17.613 5.84723
24.069 -17.4815 5.62729
24.8964 -17.6579 6.0243
25.047 -17.4816 5.96936
23.1326 -17.0989 5.00305
23.036 -17.1002 4.93083
23.0663 -17.2304 5.05499
22.9952 -17.3705 5.1026
22.4305 -17.4499 4.88015
22.8787 -17.5864 5.22964
22.6455 -17.6519 5.15585
22.4604 -17.6142 5.00829
22.2536 -17.5811 4.81787
22.0882 -17.4249 4.61037
21.5531 -16.3257 3.48116
21.4728 -16.4778 3.50673
21.3463 -16.4968 3.36643
21.6578 -16.619 3.74188
21.5495 -16.5619 3.63559
21.9063 -17.3885 4.43451
21.9021 -17.267 4.3167
21.8323 -17.153 4.23209
21.7077 -17.0509 4.12147
21.6561 -16.8977 3.96159
21.677 -16.747 3.83896
21.2454 -16.6425 3.31865
21.1536 -16.6535 3.18358
21.0164 -16.8401 3.12324
20.961 -16.7955 2.93776
20.845 -16.9294 2.82493
20.7395 -17.0786 2.72377
20.6748 -17.1245 2.55954
20.5845 -17.2812 2.50681
20.4812 -17.5503 2.50529
20.3606 -17.7894 2.39806
20.1856 -18.2002 2.42948
20.1757 -18.2084 2.25566
20.0746 -18.4484 2.16153
20.0688 -18.5188 1.97669
20.218 -18.2966 1.80301
20.2158 -18.4232 1.66968
20.3181 -18.4433 1.4167
20.6156 -18.3734 0.83492
20.4262 -18.5885 1.10288
20.7943 -18.3658 0.514088
20.934 -18.448 0.149532
21.0177 -18.2175 0.12634
21.1172 -18.2178 -0.0450155
21.1904 -18.0962 -0.111314
21.1498 -17.915 0.0551635
27.7759 -19.4446 -1.60683
21.3277 -18.2273 -0.432508
21.4282 -18.1131 -0.530747
21.5601 -18.2832 -0.87894
22.6814 -19.3135 -2.9239
22.878 -19.2236 -3.00642
22.967 -19.4286 -3.10113
23.1318 -19.5049 -3.2048
23.2814 -19.5298 -3.2757
23.5821 -19.5819 -3.33191
23.757 -19.5838 -3.29315
23.9705 -19.6116 -3.24947
24.2197 -19.5473 -3.19285
24.5184 -19.5237 -3.08365
24.8097 -19.5297 -3.00102
24.9255 -19.7516 -2.92415
25.1154 -19.745 -2.84375
25.2475 -19.9735 -2.77738
25.4871 -19.738 -2.75861
25.6704 -19.6019 -2.72357
23.409 -19.5238 -3.30601
23.4483 -19.6072 -3.32657
21.9594 -19.2772 -2.32461
22.0552 -19.3837 -2.50291
22.1129 -19.5136 -2.62697
22.2519 -19.5656 -2.75784
22.4927 -19.5529 -2.9098
21.5633 -18.4733 -1.04928
21.596 -18.6426 -1.28263
21.5416 -18.8865 -1.4123
21.6484 -19.074 -1.74689
21.771 -18.9844 -1.85253
21.7494 -19.1786 -1.99752
21.8697 -19.1919 -2.16356
25.8167 -19.8229 -2.72274
26.0168 -19.8341 -2.67058
26.1636 -19.8387 -2.61385
26.3013 -19.7691 -2.54115
26.5139 -19.7678 -2.42685
26.7416 -19.625 -2.31923
27.0155 -19.5785 -2.17741
27.2651 -19.7154 -2.03434
27.5217 -19.8742 -1.89429
27.7572 -19.867 -1.69341
27.8964 -19.7047 -1.54208
29.1445 -19.6955 -0.0426971
29.1845 -19.6522 0.0986734
29.2804 -19.7629 0.202129
29.3678 -20.0502 0.290713
29.4007 -20.0242 0.426167
29.4643 -20.155 0.566024
29.6003 -20.3506 0.984314
29.6088 -20.6323 0.679311
29.6531 -20.6008 0.897158
29.645 -20.4762 1.34612
29.6647 -20.5329 1.15642
29.6733 -20.6115 1.59537
29.618 -20.6468 1.86818
29.5257 -20.6608 2.10392
29.4193 -20.4832 2.24851
29.2915 -20.1762 2.2886
28.4576 -19.1411 3.01008
28.6235 -19.3594 2.84603
28.9888 -19.7899 2.52147
28.8123 -19.6176 2.70828
29.1249 -19.9979 2.46157
28.8347 -19.5584 -0.41367
28.9566 -19.7873 -0.373528
29.1 -19.7826 -0.194779
27.8959 -19.537 -1.49252
28.0329 -19.6318 -1.3812
28.2294 -19.7923 -1.22824
28.3856 -19.7432 -1.03861
28.4921 -19.7026 -0.902709
28.6258 -19.6615 -0.713896
28.7293 -19.5972 -0.533996
28.3317 -19.152 3.3295
28.1977 -19.0573 3.55535
27.8267 -18.9159 4.54951
28.0112 -19.0949 4.17801
28.2579 -19.1397 3.57113
28.2529 -19.2277 3.68855
28.1413 -19.1997 3.90528
27.3018 -18.934 5.67981
27.4215 -18.9066 5.46365
27.0895 -18.8848 5.95233
27.0655 -18.7354 5.86118
26.9535 -18.6725 5.9166
26.9016 -18.5376 5.85124
27.7204 -19.0217 4.83136
27.6789 -19.205 5.11629
27.4665 -19.0943 5.49018
26.7345 -18.4738 6.0016
26.5052 -18.4299 6.18529
26.4352 -18.2051 6.12153
26.6161 -18.4419 6.10014
26.2417 -18.1555 6.24148
26.2382 -17.8982 6.10252
26.1393 -17.7764 6.04073
25.9954 -17.796 6.149
25.9872 -17.5163 5.96131
25.8989 -17.522 6.00423
25.775 -17.5185 6.05068
25.677 -17.5229 6.09469
25.2917 -17.2359 5.8649
25.5752 -17.7145 6.21958
25.4725 -17.4714 6.07222
25.3338 -17.4121 6.01863
25.1986 -17.3551 5.93109
23.7939 -17.4805 5.53208
23.6689 -17.3925 5.40013
23.4494 -17.3478 5.28926
23.2065 -17.2747 5.14815
24.8293 -17.9145 6.17151
24.5613 -17.9288 6.08618
24.345 -17.8304 5.97593
24.179 -17.6914 5.82904
23.8621 -17.6796 5.73959
25.0723 -17.857 6.19248
25.102 -17.6715 6.11969
25.2166 -17.5619 6.10208
23.1922 -17.5243 5.31619
23.0389 -17.7959 5.45302
22.7618 -17.8182 5.30764
22.5087 -17.842 5.18564
22.297 -17.7913 5.01889
22.0752 -17.823 4.90567
22.0281 -17.6442 4.72555
21.8783 -17.5814 4.59057
21.4336 -16.6789 3.59542
21.3287 -16.6544 3.47593
21.5357 -16.6973 3.67898
21.5585 -16.8014 3.80165
21.7227 -17.5703 4.44501
21.726 -17.3821 4.28429
21.6595 -17.2256 4.16926
21.54 -17.1449 4.05385
21.4391 -17.0452 3.86268
21.2011 -16.8444 3.43818
21.1125 -16.816 3.29459
20.8744 -17.021 3.00922
21.009 -17.0029 3.27127
20.9026 -17.1347 3.18429
20.7076 -17.2522 2.91219
20.6286 -17.3387 2.72203
20.5747 -17.3621 2.59531
20.4079 -17.7949 2.64441
20.2893 -18.024 2.60566
20.4912 -17.6101 2.6919
20.0783 -18.4587 2.65699
20.0236 -18.5582 2.54055
20.005 -18.5759 2.39444
19.8991 -18.8747 2.31806
19.9266 -18.8414 2.13111
20.0699 -18.657 1.82172
19.9594 -18.8296 1.98871
20.1541 -18.6647 1.62542
20.1707 -18.8525 1.43861
20.3024 -18.6795 1.29593
20.5316 -18.7822 0.778748
20.6944 -18.6038 0.568837
20.2808 -18.8588 1.15893
20.4025 -18.7916 1.00052
20.7994 -18.6796 0.272568
21.0794 -18.4342 -0.116317
20.9282 -18.7751 -0.0533681
21.0261 -18.6358 -0.154512
21.2148 -18.4085 -0.375923
21.3724 -18.5247 -0.74049
21.4564 -18.3666 -0.777582
22.7346 -19.4746 -2.99943
22.9566 -19.7379 -3.18199
22.7666 -19.6962 -3.08492
23.1297 -19.7685 -3.27349
23.2944 -19.7296 -3.33426
23.5277 -19.7991 -3.34454
23.3992 -19.771 -3.36901
23.7034 -19.8132 -3.30873
24.0867 -19.7721 -3.20075
23.8706 -19.8503 -3.2582
24.3068 -19.7093 -3.14747
24.4687 -19.8364 -3.0832
24.6992 -19.7671 -3.00599
24.809 -20.006 -2.92334
25.0067 -20.0167 -2.85823
25.041 -20.3457 -2.82379
25.241 -20.41 -2.75054
25.4663 -20.0993 -2.7289
25.6067 -19.8753 -2.72319
25.6357 -19.7371 -2.72494
25.7001 -19.8071 -2.72313
21.7586 -19.42 -2.20143
21.8813 -19.4909 -2.3886
21.9095 -19.6702 -2.53746
22.0433 -19.7092 -2.66297
22.0629 -19.8766 -2.75476
22.2609 -19.8173 -2.86452
22.4309 -19.8121 -2.95756
22.5935 -19.6886 -3.0027
21.4952 -18.6153 -1.05218
21.4473 -19.1085 -1.41209
21.5095 -19.2169 -1.66727
21.4102 -18.8386 -1.08775
21.5819 -19.403 -1.95673
25.6902 -20.0905 -2.72101
25.9306 -20.152 -2.70254
26.1861 -20.1331 -2.60101
26.2489 -19.9392 -2.55741
26.444 -20.0291 -2.49084
26.7749 -19.9904 -2.32014
27.0449 -19.8335 -2.14929
27.3911 -20.0344 -1.96794
27.7415 -20.1568 -1.75626
27.9645 -20.1873 -1.58658
28.1281 -20.0945 -1.4408
28.0986 -19.8464 -1.38144
29.2694 -19.9683 0.0995666
29.1787 -19.9726 -0.081468
29.3546 -20.177 0.205605
29.4347 -20.3778 0.281984
29.472 -20.3401 0.449946
29.6812 -20.6322 1.04384
29.7092 -20.8735 0.883486
29.5591 -20.7431 0.429848
29.6884 -21.0081 0.629516
29.7516 -21.0756 0.81476
29.7436 -20.8817 1.0428
29.7315 -20.7676 1.27411
29.7332 -20.8144 1.44463
29.7206 -20.7578 1.14219
29.7531 -20.9025 1.58438
29.7199 -20.8785 1.71271
29.7314 -21.0453 1.85122
29.6376 -20.9794 2.07001
29.488 -20.8161 2.32138
29.3543 -20.5114 2.40538
29.3246 -20.3642 2.36107
29.197 -20.2605 2.53148
28.5307 -19.3554 3.07786
28.678 -19.5327 2.92617
28.9989 -19.9213 2.68082
28.8212 -19.7561 2.91819
28.8019 -19.6989 -0.541385
28.8483 -19.8714 -0.572551
28.9935 -20.1152 -0.491012
29.1114 -20.0361 -0.257444
28.2723 -19.992 -1.27213
28.4627 -19.9853 -1.06812
28.5624 -19.8273 -0.893691
28.7522 -19.7727 -0.636758
28.7195 -19.8604 -0.724846
28.4808 -19.3933 3.27816
28.3582 -19.2821 3.47357
27.9234 -19.2026 4.45444
27.8102 -19.188 4.73754
28.1223 -19.3271 4.05961
28.0225 -19.2719 4.26059
28.3555 -19.3849 3.57256
28.2612 -19.3814 3.78717
27.1884 -19.0469 5.95373
27.3296 -19.1916 5.82849
27.0187 -19.0666 6.21798
26.875 -18.9096 6.24708
26.9334 -18.7842 6.04925
26.7725 -18.6721 6.11031
27.8618 -19.459 4.83876
27.8343 -19.6264 5.09339
27.6581 -19.5733 5.37889
27.5679 -19.3091 5.43706
27.4558 -19.3316 5.6443
26.6156 -18.5599 6.17931
26.4715 -18.6094 6.36011
26.3272 -18.4083 6.32923
26.1368 -18.3703 6.45658
26.1197 -18.1885 6.34408
26.1183 -18.0122 6.22151
26.0127 -18.1719 6.39239
25.9109 -18.0372 6.37264
25.8381 -17.827 6.24675
25.705 -17.7791 6.23311
25.6338 -18.0445 6.45546
25.4746 -18.0308 6.47078
25.4503 -17.7621 6.247
25.3607 -17.6558 6.17597
23.525 -17.5882 5.50969
24.7037 -18.1674 6.33456
25.0401 -18.0154 6.33013
24.9275 -18.1073 6.39655
24.3522 -18.0663 6.17322
24.1025 -17.8762 5.95699
23.7885 -17.9687 5.94998
23.5997 -17.778 5.73667
25.2388 -17.8009 6.2183
25.1893 -17.983 6.38363
23.2716 -17.681 5.48192
23.3326 -17.8159 5.65058
23.1244 -17.9726 5.63492
22.905 -18.0041 5.53997
22.8425 -17.9107 5.42632
22.6589 -17.9803 5.40418
22.4227 -18.0105 5.2877
22.3236 -17.9238 5.15437
22.1958 -17.9278 5.06416
22.0685 -18.0364 5.06187
21.8902 -17.9876 4.89782
21.8486 -17.7988 4.73253
21.7268 -17.7255 4.56758
21.3012 -16.8971 3.58667
21.4222 -16.8541 3.71137
21.6277 -17.7399 4.44786
21.5259 -17.639 4.29523
21.4998 -17.4052 4.15211
21.3657 -17.3227 3.98221
21.2262 -17.2627 3.81752
21.3074 -17.0303 3.73639
21.1303 -17.0777 3.5574
21.0565 -17.0357 3.41112
20.7709 -17.2818 3.0957
20.9232 -17.2392 3.35869
20.7668 -17.4781 3.27906
20.6373 -17.5782 3.09873
20.5163 -17.6749 2.90285
20.3447 -17.988 2.81042
20.1654 -18.4015 2.83408
19.9461 -18.8303 2.8746
19.9525 -18.7589 2.67297
19.9183 -18.7987 2.56698
19.8462 -18.9713 2.50421
19.7607 -19.2001 2.44262
19.7793 -19.1823 2.27092
19.8249 -19.1844 2.06902
19.9369 -18.9693 1.90836
20.0143 -18.9887 1.7186
20.0164 -19.2991 1.50601
20.1781 -19.1112 1.2619
20.3731 -18.9639 0.930912
20.4689 -19.057 0.739109
20.5697 -19.0419 0.56033
20.7094 -18.8973 0.4301
20.2804 -19.0797 1.06815
20.8239 -19.0606 0.0395937
21.1403 -18.711 -0.441565
20.9742 -19.0502 -0.301815
21.0325 -18.8324 -0.30856
21.2844 -18.7211 -0.749637
22.927 -20.0979 -3.2616
22.7859 -19.9221 -3.15166
22.5553 -19.9755 -3.05727
23.1698 -19.959 -3.35014
23.283 -19.8718 -3.39105
23.4769 -20.0345 -3.36316
23.3006 -19.9921 -3.41155
23.6793 -20.0503 -3.30391
23.9491 -20.0449 -3.22985
24.2252 -19.9321 -3.13491
24.4018 -20.0888 -3.08293
24.6243 -20.0242 -3.01687
24.7125 -20.2019 -2.95589
24.8292 -20.3341 -2.89834
24.8228 -20.6607 -2.84176
25.0046 -20.6963 -2.78414
25.4111 -20.3741 -2.72683
25.1593 -20.7975 -2.7415
25.3285 -20.5738 -2.72889
25.5374 -20.2864 -2.7237
21.578 -19.7116 -2.1886
21.7196 -19.709 -2.37315
21.7259 -19.9758 -2.51432
21.8859 -19.9291 -2.64452
22.0859 -20.068 -2.85739
21.8861 -20.1871 -2.75195
22.2734 -20.074 -2.97139
21.3808 -19.1113 -1.23096
21.3798 -19.3028 -1.46165
21.4073 -19.3343 -1.61336
21.4246 -19.5587 -1.82668
21.3226 -18.9537 -1.00188
21.4677 -19.7156 -2.03508
25.6197 -20.3829 -2.73018
25.7746 -20.3936 -2.73806
25.9276 -20.4645 -2.7
26.0632 -20.406 -2.65866
26.2517 -20.5251 -2.56405
26.4367 -20.3676 -2.48589
26.6741 -20.2982 -2.36092
27.1144 -20.1435 -2.11675
26.9262 -20.289 -2.23631
27.3897 -20.3209 -1.9549
27.5936 -20.2918 -1.83568
27.8067 -20.4867 -1.71833
28.0154 -20.4819 -1.57151
28.1408 -20.3746 -1.45575
28.3463 -20.5266 -1.27546
28.4538 -20.259 -1.17129
29.2713 -20.1799 -0.00430309
29.3646 -20.2994 0.118317
29.2248 -20.2055 -0.134133
29.45 -20.6238 0.190003
29.7978 -21.0934 0.976619
29.6771 -21.1572 0.492096
29.5551 -20.9802 0.278111
29.8011 -21.3717 0.729988
29.8752 -21.3903 0.986524
29.8467 -21.198 1.16103
29.7766 -20.9398 1.19342
29.8074 -21.0629 1.35012
29.7834 -21.0408 1.50693
29.8058 -21.1638 1.65931
29.8048 -21.3441 1.82413
29.7432 -21.2372 1.97504
29.7016 -21.3111 2.16618
29.6137 -21.0821 2.23611
29.5654 -21.2048 2.40273
29.3968 -20.95 2.54605
29.2756 -20.6314 2.59198
29.1357 -20.3589 2.73442
29.0251 -20.1242 2.77562
28.632 -19.5597 3.09923
28.9193 -19.9547 2.83405
28.8552 -20.0328 2.98811
28.7068 -19.7655 3.1207
28.8258 -20.0183 -0.672037
28.8448 -20.2379 -0.702591
29.0414 -20.5209 -0.508542
29.1783 -20.4055 -0.267275
28.6797 -20.241 -0.940853
28.6965 -20.0199 -0.850894
28.5408 -19.6189 3.29539
28.4587 -19.4245 3.41827
28.0066 -19.4288 4.35552
27.9182 -19.4024 4.59082
28.2183 -19.5097 3.9098
28.1299 -19.5595 4.11962
28.0721 -19.3809 4.20804
28.4294 -19.5354 3.47384
28.3625 -19.5182 3.61498
28.3095 -19.5764 3.73282
27.1527 -19.2177 6.07858
27.382 -19.52 5.9039
27.249 -19.353 6.00689
27.0031 -19.3096 6.32867
26.8395 -19.1853 6.44928
26.8426 -19.0284 6.39321
26.732 -18.9486 6.46221
26.63 -18.8026 6.3886
26.7942 -18.8125 6.19423
26.6082 -18.6821 6.26198
27.9821 -19.62 4.63627
27.9589 -19.7864 4.82469
27.7752 -19.8242 5.25657
27.904 -20.031 5.07814
27.6982 -19.8558 5.41071
27.6189 -19.8149 5.57402
27.5632 -19.6135 5.59413
27.5382 -19.4537 5.54414
27.4907 -19.5209 5.69329
26.399 -18.737 6.51231
26.2531 -18.5945 6.5373
26.1108 -18.5395 6.60685
25.986 -18.4526 6.62427
25.8888 -18.2487 6.51339
25.8108 -18.1107 6.47498
25.7428 -17.9943 6.39034
25.7267 -18.1683 6.54036
25.6704 -18.2833 6.65136
25.5573 -18.2984 6.66855
25.4303 -18.3277 6.68923
25.2925 -18.2014 6.5711
25.348 -17.908 6.35174
24.9286 -18.3128 6.54602
24.735 -18.4517 6.56816
24.4585 -18.3962 6.43906
25.0953 -18.1726 6.50734
24.1857 -18.2925 6.27327
24.0729 -18.0718 6.10956
23.5405 -18.131 5.93676
23.52 -17.9523 5.79927
23.9268 -18.2424 6.15821
23.7167 -18.206 6.04406
23.3165 -18.0594 5.78899
23.0276 -18.1575 5.76259
22.7042 -18.1512 5.60113
22.5049 -18.097 5.44105
22.247 -18.0397 5.18294
22.3231 -18.1451 5.34319
22.1605 -18.1586 5.20696
22.0501 -18.157 5.11444
21.9142 -18.1945 5.02019
21.7436 -18.1243 4.85561
21.7346 -17.9725 4.77901
21.6658 -17.8976 4.62664
21.6521 -17.8081 4.53369
21.2055 -17.1177 3.67419
21.5222 -17.8241 4.38055
21.5785 -17.8801 4.49355
21.4103 -17.588 4.17458
21.3949 -17.8566 4.3115
21.3158 -17.7567 4.17596
21.3166 -17.5504 4.08094
21.1888 -17.5049 3.94813
21.0813 -17.3043 3.68252
21.0722 -17.5085 3.81281
20.9738 -17.2852 3.53195
20.837 -17.5202 3.48472
20.7174 -17.7377 3.43631
20.5878 -17.8648 3.30877
20.475 -17.9348 3.12343
20.3721 -18.0463 3.00102
20.2208 -18.3601 3.03862
20.0628 -18.6925 3.04555
19.9308 -18.974 3.10594
19.8763 -19.0805 3.02573
19.8118 -19.1508 2.93747
19.7931 -19.1314 2.73323
19.7374 -19.2234 2.58108
19.6833 -19.4183 2.55273
19.6707 -19.4853 2.42354
19.6915 -19.4888 2.2471
19.8703 -19.2323 1.89513
19.7017 -19.5425 2.08206
19.7994 -19.3912 1.99538
19.9001 -19.3104 1.74554
19.8688 -19.5029 1.68449
19.8831 -19.6134 1.52955
19.9965 -19.7143 1.27961
20.14 -19.3803 1.2411
20.2327 -19.2669 1.09049
20.3541 -19.2524 0.85351
20.4959 -19.2727 0.573298
20.6472 -19.2562 0.303765
20.9042 -19.2898 -0.288262
20.7503 -19.5168 -0.0968336
21.1076 -19.0233 -0.568978
21.2364 -18.9652 -0.790657
21.0001 -19.2236 -0.399404
21.0584 -19.1795 -0.496592
22.7088 -20.1025 -3.16334
22.7128 -20.2539 -3.2276
22.7746 -20.3998 -3.2814
22.9239 -20.3927 -3.34387
23.0972 -20.2437 -3.40475
22.5336 -20.2296 -3.13857
22.4051 -20.1681 -3.06354
22.4939 -20.1212 -3.0674
23.434 -20.299 -3.35886
23.2676 -20.2569 -3.42221
23.6842 -20.3052 -3.27664
23.9389 -20.2801 -3.20363
24.1594 -20.174 -3.14741
24.3326 -20.3339 -3.08872
24.5551 -20.2569 -3.02675
24.6632 -20.3912 -2.97174
24.6038 -20.6384 -2.92487
24.5933 -20.9434 -2.85133
24.797 -20.9679 -2.78843
24.9576 -20.9554 -2.74893
25.4757 -20.5074 -2.72533
25.1891 -21.0458 -2.73179
25.36 -20.7673 -2.72786
25.0199 -21.0741 -2.73564
21.4142 -20.0091 -2.17472
21.5384 -20.0558 -2.36774
21.5701 -20.3318 -2.54522
21.7534 -20.1657 -2.61912
22.0264 -20.3675 -2.90351
21.698 -20.3659 -2.6856
21.7678 -20.528 -2.80615
22.2661 -20.3447 -3.02119
21.3421 -19.3114 -1.32255
21.2981 -19.2109 -1.07662
21.3449 -19.4843 -1.47077
21.3608 -19.5439 -1.63748
21.3539 -19.9286 -1.98272
21.3018 -19.8343 -1.79132
25.6061 -20.6637 -2.73566
25.8159 -20.6425 -2.70329
26.028 -20.7618 -2.60718
26.3211 -20.8156 -2.47546
26.4846 -20.6686 -2.45125
26.6395 -20.5502 -2.372
26.9015 -20.5843 -2.21812
27.1845 -20.4693 -2.08978
27.6259 -20.5102 -1.84147
27.4479 -20.5521 -1.94345
27.7893 -20.6831 -1.72249
27.974 -20.7767 -1.57895
28.1492 -20.7611 -1.45193
28.2079 -20.5971 -1.40912
28.5619 -20.5802 -1.09237
28.3238 -20.8402 -1.31642
28.5815 -20.9564 -1.08693
28.6489 -20.4647 -0.971445
29.3268 -20.4711 -0.0262382
29.4347 -20.8411 0.0728004
29.7539 -21.4863 0.542698
29.6573 -21.3143 0.344505
29.5362 -21.1653 0.150983
29.8555 -21.7412 0.719352
29.9211 -21.7024 0.924684
29.9669 -21.6939 1.09033
29.9549 -21.5445 1.20273
29.9198 -21.4087 1.38172
29.8548 -21.2261 1.49674
29.8965 -21.4326 1.59347
29.8578 -21.41 1.71418
29.7942 -21.4835 1.98216
29.8974 -21.683 1.79943
29.773 -21.6155 2.15691
29.6857 -21.5261 2.36891
29.5707 -21.4763 2.58437
29.4419 -21.2256 2.65981
29.3129 -20.9837 2.73758
29.3165 -20.8278 2.65183
29.2375 -20.7787 2.76002
29.0979 -20.566 2.87815
29.016 -20.2723 2.88957
28.8049 -20.1642 3.17104
28.6775 -19.9446 3.20136
28.9356 -20.3425 3.06821
28.6332 -19.7705 3.22858
28.836 -20.5521 -0.755771
29.1971 -20.7709 -0.304349
29.0291 -20.8223 -0.557312
29.12 -20.7995 -0.430106
29.3238 -20.7601 -0.122339
28.4557 -19.7578 3.53878
28.5746 -19.8003 3.31407
28.0778 -19.7017 4.34598
27.9969 -19.5613 4.49088
28.2981 -19.7623 3.86193
28.2125 -19.8685 4.12424
27.158 -19.3987 6.1805
27.3048 -19.7075 6.1404
27.2566 -19.5021 6.08998
27.5098 -19.7739 5.78262
27.4207 -19.9022 6.03926
27.0655 -19.509 6.33549
26.9291 -19.5278 6.51107
26.8416 -19.3426 6.53491
26.6499 -19.295 6.67585
26.6836 -19.0986 6.5511
26.538 -18.9602 6.6351
26.4304 -18.8282 6.60871
28.0267 -19.6857 4.50304
28.0681 -19.8743 4.54476
28.0609 -20.1412 4.763
27.7902 -20.0549 5.35111
28.0214 -20.4376 5.01061
27.8806 -20.3361 5.29535
27.6932 -20.0185 5.52756
27.6015 -20.09 5.7425
26.2771 -18.7605 6.63679
26.1275 -18.6813 6.7344
25.9126 -18.6881 6.88206
25.7957 -18.3942 6.68089
25.648 -18.5314 6.82687
25.4878 -18.5657 6.85934
25.3225 -18.5261 6.83465
25.128 -18.4692 6.71703
24.9307 -18.5537 6.7177
24.7727 -18.6951 6.72235
24.583 -18.6411 6.62697
24.3952 -18.6485 6.59964
24.2029 -18.5539 6.49031
24.0411 -18.4348 6.34479
23.5646 -18.2905 6.08115
23.3095 -18.3043 6.00409
23.8757 -18.4232 6.29806
23.7228 -18.348 6.20992
23.0305 -18.402 5.90464
22.8336 -18.3101 5.74809
22.6282 -18.3413 5.65064
22.4666 -18.241 5.4952
22.2325 -18.3258 5.35233
22.0678 -18.2465 5.16913
21.7535 -18.262 4.8919
21.9949 -18.4066 5.14247
21.8045 -18.3745 4.95788
21.626 -18.2615 4.78624
21.5976 -18.1016 4.70075
21.5261 -18.0235 4.55862
21.4347 -17.9764 4.4307
21.309 -17.9982 4.34676
21.2442 -17.9254 4.27236
21.0949 -17.9576 4.16011
21.1513 -17.722 4.04432
21.0594 -17.6609 3.92923
20.9368 -17.5802 3.67467
20.9721 -17.7052 3.831
20.7784 -17.8157 3.59703
20.6161 -17.9865 3.51818
20.4998 -18.1383 3.43242
20.4254 -18.1804 3.29892
20.3321 -18.247 3.15967
20.2342 -18.4456 3.191
20.1245 -18.676 3.24998
20.0031 -18.8604 3.19795
19.9507 -19.0287 3.24005
19.8882 -19.1355 3.21233
19.8647 -19.1732 3.13581
19.8136 -19.2441 3.0677
19.7551 -19.3333 3.00632
19.7511 -19.3029 2.89968
19.7143 -19.4531 2.86387
19.6918 -19.4373 2.75982
19.69 -19.3919 2.66688
19.6289 -19.5425 2.63049
19.6141 -19.6102 2.55943
19.5808 -19.6957 2.49182
19.6006 -19.7362 2.38236
19.6141 -19.7495 2.2308
19.764 -19.5729 1.88848
19.6113 -19.8621 2.08499
19.7921 -19.7713 1.70784
19.8427 -19.9161 1.5159
19.8957 -20.009 1.33682
19.9894 -20.0668 1.1583
20.1116 -19.9258 0.935799
20.2302 -19.5626 0.980283
20.4107 -19.6304 0.579001
20.5317 -19.4331 0.417951
20.5769 -19.6025 0.238485
20.9878 -19.3558 -0.550585
20.8778 -19.5427 -0.428691
20.6218 -19.9075 -0.0196124
20.7742 -19.8192 -0.261832
20.8243 -19.6827 -0.345286
21.1459 -19.2792 -0.701004
21.2189 -19.1902 -0.841325
22.6224 -20.3972 -3.20532
22.7959 -20.6586 -3.32057
22.6405 -20.5638 -3.22518
22.9787 -20.4974 -3.39428
23.1107 -20.4777 -3.40236
22.4035 -20.3102 -3.08263
22.4307 -20.5208 -3.11543
23.2385 -20.454 -3.38711
23.3033 -20.5096 -3.36134
23.4588 -20.4673 -3.34183
23.5652 -20.5761 -3.2895
23.8255 -20.491 -3.19059
24.0888 -20.4153 -3.15567
24.2359 -20.5708 -3.08673
24.4732 -20.4896 -3.02056
24.4154 -20.9075 -2.94265
24.3493 -20.7401 -3.01195
24.3362 -21.1542 -2.89785
24.5481 -21.3031 -2.76216
24.8377 -21.1867 -2.72422
24.9866 -21.3149 -2.71759
25.2181 -21.2722 -2.71411
25.4325 -20.9994 -2.71524
21.2586 -20.2841 -2.09412
21.3384 -20.4074 -2.30764
21.4726 -20.3151 -2.41647
21.5775 -20.6219 -2.69799
21.4216 -20.4899 -2.45925
21.4174 -20.6884 -2.58026
21.8689 -20.731 -2.93003
22.126 -20.6529 -3.02966
21.6285 -20.8954 -2.8521
21.305 -19.4986 -1.30015
21.2087 -19.4555 -1.00987
21.2775 -19.7565 -1.55769
21.24 -20.1741 -1.89539
21.2294 -20.0506 -1.72304
25.7243 -20.9339 -2.66856
25.8965 -20.9939 -2.60271
26.0273 -21.0986 -2.52441
26.2195 -21.0025 -2.48411
26.4355 -21.0615 -2.4015
26.5292 -20.9018 -2.37745
26.7333 -20.8296 -2.28881
27.0823 -20.9732 -2.06944
27.1281 -20.6905 -2.08933
27.3499 -20.7556 -1.96684
27.6198 -20.7495 -1.82024
27.8294 -20.8912 -1.67132
27.9799 -21.0227 -1.56433
28.1772 -21.0678 -1.43204
28.7217 -20.7339 -0.916297
28.398 -21.1138 -1.25429
28.7532 -21.1378 -0.906965
28.7791 -20.9921 -0.872794
28.5229 -21.327 -1.14512
28.7181 -21.3546 -0.939199
29.4293 -21.0261 -0.0135412
29.7834 -21.7371 0.549488
29.7248 -21.5711 0.410661
29.6181 -21.5158 0.238076
29.4874 -21.3001 0.0209418
29.8578 -22.0793 0.63383
29.9667 -22.0502 0.916173
30.0014 -21.9424 1.08693
30.0155 -21.8671 1.24897
30.0052 -21.687 1.35801
29.9714 -21.6764 1.52796
29.8267 -21.6717 2.00359
29.9989 -21.8927 1.61637
30.0058 -22.0238 1.76039
29.9565 -21.9675 1.92948
29.8542 -21.8691 2.10919
29.7594 -21.7796 2.3502
29.6495 -21.7243 2.5728
29.5666 -21.6218 2.69552
29.4481 -21.4985 2.84594
29.312 -21.2092 2.8946
29.1687 -20.9203 2.97512
28.9665 -20.6912 3.19025
28.8213 -20.3996 3.27618
28.6834 -20.1649 3.32751
28.5847 -19.9548 3.37169
28.8941 -20.9001 -0.732184
29.2161 -21.1021 -0.371909
29.3435 -21.0597 -0.154784
29.0551 -21.0875 -0.580851
28.5624 -20.1364 3.5464
28.4357 -19.9942 3.72185
28.164 -19.9605 4.32132
28.3642 -20.1218 3.95507
28.2671 -20.1343 4.19915
27.179 -19.6095 6.24546
27.3257 -19.9401 6.227
27.2255 -19.8466 6.31615
27.5078 -20.0036 5.90853
27.5052 -20.2442 6.0294
27.3887 -20.1596 6.23311
27.075 -19.7644 6.45414
26.8235 -19.6612 6.68714
26.7562 -19.4701 6.67099
26.9429 -19.7266 6.5949
26.4945 -19.4587 6.88078
26.4343 -19.2568 6.84222
26.5386 -19.1374 6.71376
26.6353 -19.455 6.76298
26.3708 -19.0783 6.82281
26.2887 -18.8828 6.76944
28.1935 -20.2384 4.44992
28.1459 -20.4803 4.71179
27.7407 -20.2658 5.5409
28.039 -20.7047 5.09532
27.9448 -20.6282 5.27524
28.1124 -20.6915 4.90419
27.8198 -20.551 5.51904
27.6666 -20.4831 5.8057
26.0895 -18.8516 6.87918
25.9853 -18.9589 7.01694
25.829 -18.9211 7.04995
25.7328 -18.7501 6.97298
25.7648 -18.5979 6.84984
25.584 -18.7931 7.02772
25.3931 -18.8773 7.06856
25.2076 -18.7678 6.96892
25.045 -18.7515 6.87245
24.907 -18.7475 6.8118
24.8277 -18.8318 6.82879
24.7338 -18.8643 6.79003
24.6355 -18.8224 6.72956
24.447 -18.8818 6.73321
24.2603 -18.7972 6.69512
24.0654 -18.7444 6.62031
24.101 -18.6245 6.51588
24.0694 -18.5541 6.45851
23.9319 -18.5629 6.42857
23.5348 -18.4838 6.201
23.3135 -18.5761 6.1615
23.1918 -18.462 6.02652
23.7291 -18.5571 6.33975
23.1 -18.5804 6.02109
22.9681 -18.5212 5.92322
22.7814 -18.5213 5.81187
22.5661 -18.4752 5.6545
22.4461 -18.4002 5.54321
22.3391 -18.5508 5.48766
22.1508 -18.521 5.31259
21.6794 -18.3614 4.84715
21.9956 -18.6379 5.18515
21.8022 -18.5613 4.99081
21.6799 -18.4705 4.867
21.536 -18.4394 4.74367
21.4799 -18.2858 4.65454
21.4731 -18.1677 4.58072
21.4097 -18.1179 4.50245
21.2925 -18.1312 4.41496
21.1635 -18.0902 4.30943
20.9679 -18.2439 4.21824
20.9217 -18.12 4.06691
20.9855 -17.8942 3.95769
20.8541 -17.8801 3.78356
20.6569 -18.117 3.72465
20.5074 -18.2585 3.58223
20.3694 -18.3756 3.46341
20.2653 -18.4688 3.32049
20.21 -18.6526 3.36575
20.1303 -18.7504 3.41892
20.0541 -18.8633 3.3752
20.0247 -18.9292 3.29468
19.9575 -19.0827 3.33646
19.9053 -19.1605 3.29089
19.8649 -19.2042 3.26892
19.8573 -19.2523 3.22902
19.8255 -19.3248 3.17333
19.7826 -19.4027 3.10799
19.7269 -19.4806 3.05082
19.7244 -19.4531 2.96309
19.6603 -19.5565 2.95872
19.6067 -19.6449 2.91446
19.6094 -19.6073 2.81361
19.6195 -19.5762 2.71519
19.5854 -19.6945 2.6523
19.5599 -19.7759 2.58005
19.5514 -19.8493 2.50173
19.5569 -19.8743 2.33108
19.5162 -19.9189 2.42577
19.5703 -19.9361 2.245
19.6553 -19.9828 1.90188
19.5904 -20.0284 2.04414
19.5553 -20.0052 2.17802
19.5744 -20.0311 2.11727
