16.9671 -12.2563 -8.63263
17.0283 -12.2027 -8.50656
17.0561 -12.2394 -8.4456
17.0234 -12.337 -8.46671
17.0705 -12.277 -8.37572
17.0901 -12.3245 -8.317
17.1144 -12.3852 -8.26519
17.1636 -12.3495 -8.19921
17.2193 -12.3369 -8.13185
17.2728 -12.3539 -8.06605
17.3171 -12.3877 -8.0061
17.3505 -12.4109 -7.94627
17.3984 -12.4025 -7.90896
17.4385 -12.4372 -7.85395
17.4982 -12.4587 -7.79384
17.5574 -12.4739 -7.72543
17.6195 -12.4948 -7.65567
17.6723 -12.4263 -7.63291
17.7051 -12.3646 -7.58861
17.7689 -12.3825 -7.53577
17.8287 -12.3577 -7.49069
17.8876 -12.2929 -7.45309
18.3169 -12.5804 -7.09025
18.3903 -12.5456 -7.0602
18.4726 -12.5041 -7.01492
18.5691 -12.458 -6.98061
18.6311 -12.3904 -6.92889
18.694 -12.318 -6.91725
18.723 -12.2294 -6.91405
18.8023 -12.2015 -6.86905
18.8783 -12.1674 -6.83316
18.9477 -12.1426 -6.79877
19.0137 -12.1233 -6.77975
19.0669 -12.0951 -6.75332
19.1334 -12.1214 -6.7341
19.2065 -12.1349 -6.69375
19.3033 -12.1303 -6.66228
19.4255 -12.1095 -6.64048
19.584 -12.0778 -6.62395
20.5863 -12.0372 -6.42322
20.6806 -12.105 -6.38866
20.7796 -12.1672 -6.34439
20.932 -12.1505 -6.33031
21.0558 -12.1266 -6.31019
20.5629 -11.876 -6.48513
20.5298 -11.9342 -6.47717
20.4958 -11.9987 -6.47496
17.9704 -12.2207 -7.43438
18.2435 -12.4495 -7.19768
18.2523 -12.5373 -7.14515
18.1607 -12.3053 -7.28851
18.1328 -12.2494 -7.34118
18.2351 -12.3523 -7.24145
18.0652 -12.1531 -7.41485
18.1351 -12.1708 -7.36033
23.2187 -14.2952 -5.66322
23.2302 -14.3706 -5.67374
23.2591 -14.444 -5.68653
23.2892 -14.5055 -5.71596
23.3139 -14.5566 -5.74886
23.4133 -14.5953 -5.81154
23.5261 -14.6453 -5.84178
23.6494 -14.6939 -5.87866
23.7998 -14.7415 -5.9203
23.8445 -14.8028 -5.94753
23.7576 -14.8289 -5.92113
23.6859 -14.8521 -5.91066
23.7119 -14.8994 -5.92448
23.8097 -14.9361 -5.95805
23.9076 -14.969 -6.00939
23.9124 -15.0174 -6.03587
21.1379 -12.0788 -6.30439
21.2036 -12.0083 -6.31095
21.3139 -12.0311 -6.30089
21.4059 -12.0486 -6.26389
21.4977 -12.086 -6.25082
21.5935 -12.1342 -6.2369
21.7006 -12.1576 -6.21711
22.5256 -12.5242 -6.03444
22.4454 -12.424 -6.06726
22.6203 -12.6153 -5.99972
22.3862 -12.3164 -6.09487
22.0545 -12.25 -6.13234
22.164 -12.2216 -6.13486
22.2586 -12.1793 -6.14077
22.3484 -12.2136 -6.1305
21.9871 -12.1878 -6.16541
21.8132 -12.1413 -6.20942
21.9325 -12.1076 -6.20997
23.1 -13.2104 -5.85638
23.1025 -13.3716 -5.81774
23.1188 -13.5292 -5.79001
23.1503 -13.6589 -5.77108
23.1329 -13.7865 -5.73373
23.1129 -13.9103 -5.7118
23.1496 -14.0088 -5.69857
23.1691 -14.1009 -5.6791
22.7351 -12.5877 -6.00766
23.0375 -12.7669 -5.95427
23.0731 -12.8389 -5.91462
23.124 -12.9267 -5.91936
23.1089 -13.0563 -5.87661
22.8511 -12.539 -6.00604
22.9405 -12.6107 -5.99588
23.0021 -12.6859 -5.97666
23.1898 -14.1662 -5.66112
23.2133 -14.226 -5.65263
24.0216 -15.0585 -6.1002
24.0898 -15.1267 -6.15831
24.1546 -15.1795 -6.23307
24.2691 -15.1796 -6.28496
24.4925 -15.2191 -6.42165
24.4134 -15.1526 -6.34075
24.5638 -15.2697 -6.48804
24.6263 -15.3191 -6.55025
24.6856 -15.3881 -6.6235
24.7236 -15.438 -6.71234
24.7514 -15.467 -6.77461
24.7421 -15.5124 -6.81621
24.7278 -15.5456 -6.86981
24.7724 -15.5736 -6.94401
24.8314 -15.6084 -7.03673
24.8938 -15.6339 -7.13444
24.9679 -15.6572 -7.22325
24.9346 -15.7217 -7.27117
24.9066 -15.7838 -7.31386
24.846 -15.8589 -7.38061
24.8578 -15.9077 -7.4209
24.8664 -15.9622 -7.48455
24.8758 -16.021 -7.56212
24.8849 -16.0844 -7.66227
24.8659 -16.1376 -7.72748
24.8541 -16.1754 -7.79425
24.8763 -15.8313 -7.35162
24.9007 -16.2263 -7.88082
24.9709 -16.3186 -8.0118
24.9441 -16.2667 -7.94569
24.979 -16.4143 -8.1382
25.0083 -16.3742 -8.09646
24.9591 -16.4505 -8.20656
24.9433 -16.5061 -8.28731
24.9272 -16.5753 -8.3772
24.9048 -16.6386 -8.4819
24.8697 -16.7044 -8.59139
24.824 -16.7806 -8.70094
24.7773 -16.8571 -8.83169
24.7841 -16.929 -8.95446
24.8085 -16.9883 -9.0553
24.7714 -17.0275 -9.14871
24.7274 -17.0813 -9.24795
24.6085 -17.0545 -9.20662
24.5353 -17.0362 -9.1908
24.527 -17.0634 -9.2478
24.529 -17.112 -9.33952
24.4324 -17.1129 -9.38299
24.3583 -17.1234 -9.44005
24.2523 -17.0898 -9.43185
24.1562 -17.0796 -9.46203
24.1561 -17.1213 -9.55156
24.1711 -17.1583 -9.65411
24.0902 -17.1741 -9.70464
24.7229 -17.4509 -10.5074
24.7798 -17.4279 -10.5179
24.6781 -17.476 -10.487
24.6338 -17.4929 -10.4635
24.8592 -17.4004 -10.4503
24.589 -17.5092 -10.4389
24.5348 -17.5154 -10.4278
24.5323 -17.4992 -10.357
24.5083 -17.4871 -10.2866
25.0333 -17.1346 -10.9946
25.0916 -17.1373 -10.9291
25.1539 -17.1199 -10.8659
24.9784 -17.0993 -11.0569
25.2257 -17.1117 -10.8106
25.1525 -17.2157 -10.4457
25.1426 -17.2181 -10.528
25.1041 -17.2641 -10.3203
25.1728 -17.2194 -10.3644
24.9083 -17.3736 -10.3561
25.0009 -17.3203 -10.3063
25.2399 -17.1762 -10.5447
25.3166 -17.1296 -10.5673
25.2726 -17.1294 -10.649
25.2709 -17.1234 -10.7082
25.288 -17.0902 -10.7507
24.853 -17.013 -11.2825
24.8931 -17.0394 -11.2085
24.9364 -17.0661 -11.1323
24.8139 -16.9831 -11.3589
24.7754 -16.9432 -11.4499
24.7371 -16.8753 -11.5395
24.7021 -16.8052 -11.6246
24.7385 -16.7073 -11.6907
24.7815 -16.6017 -11.7719
24.7574 -16.5314 -11.8564
24.4621 -17.4699 -10.2209
24.4945 -17.448 -10.1204
24.2385 -17.2168 -9.87392
24.2028 -17.1936 -9.81085
24.2938 -17.2202 -9.85353
24.1586 -17.175 -9.75095
24.4069 -17.2673 -9.83223
24.442 -17.3104 -9.90143
24.3449 -17.235 -9.80617
24.4826 -17.3695 -9.9695
24.5228 -17.4246 -10.0263
24.7806 -16.4388 -11.9196
24.89 -16.2497 -12.0873
24.8645 -16.3458 -11.9586
24.91 -16.267 -12.0302
24.8739 -16.2351 -12.15
24.936 -16.1196 -12.2123
24.755 -16.0086 -12.4062
24.672 -16.0928 -12.4053
24.5964 -16.158 -12.3774
24.941 -16.0137 -12.2583
24.9211 -15.9398 -12.3122
24.8976 -15.8793 -12.3761
24.8303 -15.913 -12.4104
24.3102 -15.8766 -12.7996
24.2548 -15.7988 -12.9016
24.1986 -15.7276 -13.0028
24.1208 -15.6728 -13.0848
24.0422 -15.6497 -13.1694
23.9654 -15.5861 -13.2319
23.9051 -15.5214 -13.3195
23.8303 -15.5141 -13.352
23.789 -15.57 -13.2885
23.7261 -15.6302 -13.262
23.6308 -15.6606 -13.2429
24.3895 -15.824 -12.7978
24.5973 -16.0601 -12.4636
24.5736 -15.9379 -12.5701
24.5683 -15.8191 -12.7053
24.4814 -15.7473 -12.8042
23.529 -15.6909 -13.2391
23.3785 -15.6544 -13.2789
23.2805 -15.5943 -13.3355
23.1695 -15.5505 -13.3878
23.0613 -15.5378 -13.4403
22.9611 -15.5162 -13.4835
17.0767 -14.3195 -12.4538
16.6681 -12.581 -9.52206
16.683 -12.6164 -9.49591
16.701 -12.663 -9.46486
16.7044 -12.5972 -9.40143
16.7127 -12.5198 -9.30786
16.7568 -12.49 -9.17647
16.7868 -12.4611 -9.06466
16.8151 -12.3802 -9.00185
16.8864 -12.2581 -8.79752
16.8314 -12.2919 -8.91932
16.9306 -12.2187 -8.67634
17.0866 -12.1553 -8.39017
17.094 -12.1905 -8.33623
17.1103 -12.2325 -8.28352
17.1365 -12.2834 -8.23964
17.1942 -12.2595 -8.16255
17.2626 -12.2533 -8.07764
17.3136 -12.3028 -8.01823
17.3367 -12.3441 -7.97457
17.3697 -12.3499 -7.93749
17.3905 -12.354 -7.90876
17.4139 -12.3549 -7.878
17.4723 -12.347 -7.83122
17.5285 -12.3714 -7.76632
17.5921 -12.3735 -7.69801
17.6386 -12.3143 -7.64393
17.6797 -12.2675 -7.60386
17.7374 -12.3101 -7.56093
17.7894 -12.3214 -7.52625
17.8251 -12.269 -7.50054
17.8804 -12.1637 -7.48006
18.322 -12.4946 -7.13517
18.4064 -12.4552 -7.10834
18.4938 -12.4123 -7.06266
18.5714 -12.3622 -7.01103
18.6331 -12.3193 -6.97452
18.6497 -12.2494 -6.97001
18.6661 -12.1787 -6.97138
18.7414 -12.1536 -6.92614
18.8219 -12.1211 -6.89374
18.8971 -12.1075 -6.84501
18.961 -12.0926 -6.81944
19.0163 -12.0736 -6.79747
19.06 -12.05 -6.77137
19.1165 -12.0671 -6.74789
19.1814 -12.0776 -6.72872
19.2563 -12.0777 -6.69478
20.7294 -11.9265 -6.42735
20.8008 -12.0047 -6.39127
20.8652 -12.0753 -6.35955
21.0046 -12.0661 -6.33823
21.078 -12.0673 -6.32468
20.6858 -11.8685 -6.46067
20.6718 -11.8417 -6.47453
17.9873 -12.1123 -7.44464
18.3226 -12.3993 -7.17895
18.1779 -12.2379 -7.30623
18.2277 -12.2659 -7.27334
18.1875 -12.1829 -7.3177
18.3172 -12.2943 -7.21341
23.3173 -14.2455 -5.69326
23.3134 -14.3463 -5.6919
23.3366 -14.4208 -5.70694
23.3718 -14.4931 -5.73076
23.396 -14.5473 -5.77305
23.5073 -14.5936 -5.82627
23.6048 -14.6415 -5.86583
23.7301 -14.6703 -5.89209
23.9162 -14.7058 -5.956
23.9548 -14.776 -5.98722
23.9758 -14.8374 -6.00747
23.8759 -14.8633 -5.97572
23.7909 -14.8828 -5.94919
23.8994 -14.9189 -5.98483
24.0024 -14.946 -6.02816
24.0115 -15.0016 -6.05279
21.0935 -12.0157 -6.32856
21.1422 -11.9217 -6.35312
21.2998 -11.9384 -6.33509
21.4058 -11.9543 -6.30478
21.5022 -11.978 -6.28514
21.6 -12.0062 -6.27003
21.6978 -12.0376 -6.26027
21.7775 -12.0625 -6.24522
22.5573 -12.4308 -6.06488
22.6404 -12.5111 -6.03135
22.4929 -12.3336 -6.08089
22.4455 -12.2355 -6.11439
22.0959 -12.159 -6.16296
22.1901 -12.1308 -6.16126
22.2585 -12.1036 -6.16381
22.3252 -12.12 -6.15699
22.4088 -12.1396 -6.14783
22.0467 -12.0808 -6.19931
21.8809 -12.0169 -6.24516
22.0201 -11.9655 -6.23932
23.1737 -13.1396 -5.86964
23.1713 -13.2813 -5.83807
23.1748 -13.4227 -5.80877
23.1894 -13.552 -5.78837
23.2106 -13.6447 -5.775
23.2057 -13.739 -5.74835
23.2136 -13.8819 -5.72859
23.2243 -14.0274 -5.69243
23.2243 -14.1138 -5.68039
22.7497 -12.4761 -6.02652
23.0856 -12.6772 -5.9822
23.0979 -12.7532 -5.94176
23.1416 -12.8076 -5.93468
23.1949 -12.8775 -5.92465
23.1827 -13.003 -5.893
22.9761 -12.4856 -6.03059
22.8734 -12.4123 -6.04604
23.064 -12.5609 -6.00893
23.2612 -14.1639 -5.67209
24.1221 -15.0204 -6.10479
24.1442 -15.0802 -6.14719
24.1944 -15.131 -6.20659
24.2902 -15.1069 -6.26954
24.5625 -15.1476 -6.40921
24.6214 -15.203 -6.45926
24.5262 -15.085 -6.35241
24.405 -15.0719 -6.289
24.6876 -15.2467 -6.51863
24.7477 -15.2931 -6.58063
24.8085 -15.3233 -6.64988
24.7972 -15.3804 -6.70257
24.8165 -15.4363 -6.76235
24.8217 -15.4768 -6.83489
24.8095 -15.5315 -6.89329
24.8742 -15.5528 -6.99075
24.9358 -15.5814 -7.08488
24.9954 -15.5895 -7.17553
25.0797 -15.6028 -7.25052
25.0486 -15.6879 -7.30244
25.0037 -15.7541 -7.35553
24.9591 -15.8152 -7.39812
24.911 -15.8707 -7.42206
24.9245 -15.9273 -7.49025
24.9287 -15.9927 -7.56381
24.9395 -16.0571 -7.64474
24.9607 -16.1341 -7.72771
24.9246 -16.1624 -7.76056
24.907 -16.1964 -7.81074
24.9482 -16.2381 -7.89137
24.9926 -16.2897 -7.96569
25.0357 -16.3507 -8.04861
25.0142 -16.4682 -8.2215
25.0392 -16.4322 -8.17716
25.072 -16.409 -8.13555
24.9958 -16.5144 -8.28099
24.9813 -16.5672 -8.3577
24.9642 -16.6285 -8.45309
24.9394 -16.7022 -8.55264
24.8962 -16.7741 -8.65723
24.8606 -16.8338 -8.77014
24.8413 -16.8888 -8.87993
24.8451 -16.9483 -8.97248
24.8703 -16.9996 -9.05761
24.8478 -17.0406 -9.14547
24.828 -17.0844 -9.23625
24.8201 -17.129 -9.33117
24.736 -17.1482 -9.3673
24.6301 -17.1022 -9.30297
24.6392 -17.1624 -9.40598
24.5441 -17.1638 -9.43592
24.4684 -17.165 -9.4773
24.4102 -17.1777 -9.53171
24.3123 -17.1395 -9.5032
24.2283 -17.1257 -9.50689
24.2342 -17.1539 -9.58844
24.2213 -17.1883 -9.73844
24.2594 -17.1817 -9.6763
24.7477 -17.4477 -10.4363
24.7845 -17.4272 -10.4619
24.7114 -17.4795 -10.4108
24.6653 -17.4858 -10.3795
24.8206 -17.417 -10.3935
24.6135 -17.492 -10.3403
24.5948 -17.4876 -10.258
24.5645 -17.4698 -10.1698
25.1309 -17.0961 -10.9634
25.0923 -17.0572 -10.9991
25.1936 -17.0795 -10.9125
25.2662 -17.0689 -10.8577
25.0499 -17.0218 -11.0646
25.316 -17.0422 -10.7899
25.2869 -17.1725 -10.365
25.2973 -17.152 -10.4358
25.0818 -17.28 -10.2473
25.1631 -17.2473 -10.2589
25.2167 -17.2134 -10.2907
25.2773 -17.1763 -10.3127
24.9336 -17.373 -10.2556
24.8514 -17.4175 -10.2906
25.0109 -17.3286 -10.2138
25.3793 -17.1138 -10.469
25.4265 -17.0657 -10.4939
25.3774 -17.0883 -10.5875
25.3418 -17.1023 -10.6555
25.3551 -17.0767 -10.6929
25.3745 -17.0378 -10.7316
24.944 -16.964 -11.2096
24.8988 -16.9487 -11.2946
24.9968 -16.9892 -11.1338
24.8654 -16.9213 -11.3891
24.819 -16.8539 -11.4636
24.793 -16.7667 -11.5743
24.8209 -16.6458 -11.6636
24.8575 -16.5385 -11.7454
24.8118 -16.4971 -11.8256
24.7882 -16.4716 -11.874
24.5798 -17.4395 -10.0664
24.2495 -17.2 -9.80679
24.2851 -17.2002 -9.76454
24.4321 -17.2586 -9.78642
24.4661 -17.2818 -9.8126
24.3928 -17.2411 -9.75776
24.528 -17.3388 -9.85532
24.3284 -17.2142 -9.71467
24.5629 -17.3932 -9.93606
24.593 -17.4151 -9.99351
24.8385 -16.4155 -11.8844
24.9893 -16.1712 -12.0772
25.0229 -16.1003 -12.1563
24.93 -16.3117 -11.8997
24.9514 -16.2519 -11.9837
24.982 -16.1979 -12.0321
25.0198 -15.9542 -12.2223
24.7721 -15.8951 -12.4783
24.6753 -15.9527 -12.4939
25.0242 -15.8487 -12.3373
24.9683 -15.8035 -12.387
24.932 -15.7807 -12.4295
24.8807 -15.8147 -12.4451
24.8258 -15.8359 -12.47
24.3202 -15.7676 -12.8851
24.2808 -15.6709 -12.9794
24.2157 -15.547 -13.1333
24.0893 -15.5581 -13.2233
24.0128 -15.5492 -13.2563
23.9646 -15.5041 -13.325
23.9176 -15.466 -13.3839
23.86 -15.4554 -13.408
23.7796 -15.4274 -13.4642
23.7375 -15.4761 -13.4015
23.6819 -15.5267 -13.3636
23.5934 -15.5669 -13.3366
23.4575 -15.6016 -13.3186
24.388 -15.687 -12.913
24.6416 -15.8368 -12.6147
24.6285 -15.7422 -12.7076
24.5831 -15.6828 -12.803
24.5083 -15.5868 -12.9313
23.3127 -15.5457 -13.4033
23.1922 -15.5029 -13.4581
23.0953 -15.4883 -13.5183
23.0121 -15.4498 -13.5724
16.6845 -12.5497 -9.43787
16.7064 -12.4379 -9.29705
16.7398 -12.4366 -9.21415
16.7744 -12.4136 -9.11141
16.7935 -12.3419 -9.04331
17.1256 -12.0872 -8.31935
17.1346 -12.1239 -8.28821
17.1438 -12.1585 -8.24112
17.1695 -12.2016 -8.20189
17.2319 -12.1821 -8.11902
17.2924 -12.1662 -8.0419
17.3218 -12.224 -7.9968
17.3519 -12.2873 -7.96159
17.3813 -12.3061 -7.90857
17.4123 -12.2742 -7.86113
17.4588 -12.2362 -7.81995
17.5077 -12.2803 -7.79077
17.5428 -12.2845 -7.74527
17.582 -12.2427 -7.69963
17.6268 -12.1964 -7.65336
17.6807 -12.1728 -7.62209
17.7195 -12.2309 -7.57794
17.7675 -12.2589 -7.5387
17.8003 -12.1935 -7.53212
17.9278 -12.0559 -7.47496
17.8104 -12.1139 -7.54104
17.851 -12.0576 -7.51443
18.4108 -12.3573 -7.14066
18.4952 -12.3165 -7.081
18.5684 -12.2743 -7.01726
18.5937 -12.2056 -7.03581
18.6897 -12.1233 -6.98791
18.6166 -12.143 -7.04275
18.7469 -12.0967 -6.945
18.7951 -12.0632 -6.92205
18.8568 -12.0707 -6.87912
18.9121 -12.0649 -6.84692
18.9643 -12.0491 -6.82504
20.9408 -11.8557 -6.41751
20.9484 -11.9224 -6.39262
20.8354 -11.8353 -6.43869
20.978 -11.9935 -6.35574
20.7613 -11.8128 -6.46149
18.0021 -12.0311 -7.43363
18.2198 -12.2022 -7.28569
18.2777 -12.2195 -7.26171
18.2486 -12.156 -7.28616
18.3531 -12.2128 -7.21401
18.4162 -12.2645 -7.14903
23.4105 -14.1799 -5.72847
23.4395 -14.2698 -5.72139
23.4041 -14.3337 -5.70968
23.3415 -14.126 -5.69233
23.4149 -14.404 -5.7207
23.4553 -14.4737 -5.76477
23.4905 -14.5411 -5.80449
23.6202 -14.6034 -5.85521
23.7698 -14.6275 -5.90784
23.9386 -14.6485 -5.9647
24.0993 -14.6988 -6.00466
24.0982 -14.7572 -6.00534
24.0958 -14.8157 -6.01802
24.0874 -14.8653 -6.0403
23.9909 -14.8932 -6.01255
24.0942 -14.9104 -6.05138
24.1086 -14.9598 -6.07611
21.3062 -11.8497 -6.35507
21.0792 -11.8557 -6.39671
21.2129 -11.8272 -6.37253
21.4148 -11.8684 -6.33759
21.5099 -11.8852 -6.3147
21.6067 -11.8986 -6.30178
21.7178 -11.9112 -6.29601
21.8158 -11.9473 -6.28074
22.5877 -12.3457 -6.07805
22.6554 -12.4166 -6.0489
22.5384 -12.2556 -6.10537
22.4962 -12.1606 -6.13796
22.1424 -12.0683 -6.19098
22.2216 -12.0538 -6.18899
22.2968 -12.0469 -6.18927
22.3768 -12.0542 -6.17911
22.4587 -12.0712 -6.16498
22.1224 -11.9865 -6.22175
21.9536 -11.8782 -6.28504
22.0901 -11.8301 -6.29234
22.1483 -11.8884 -6.25838
23.2404 -13.079 -5.88123
23.2307 -13.2105 -5.86798
23.2292 -13.3355 -5.84069
23.238 -13.456 -5.80268
23.2448 -13.5702 -5.7925
23.2531 -13.6669 -5.77847
23.2707 -13.7531 -5.75945
23.313 -13.8214 -5.75777
23.2993 -13.9492 -5.71925
23.2872 -14.0685 -5.68643
22.7456 -12.382 -6.05985
23.1567 -12.596 -6.00582
23.1524 -12.7057 -5.97093
23.2077 -12.7586 -5.95373
23.262 -12.8214 -5.93854
23.2515 -12.9477 -5.90276
23.0119 -12.3636 -6.06024
23.0963 -12.4129 -6.03604
22.823 -12.3238 -6.09747
22.9369 -12.3126 -6.08401
23.1711 -12.4686 -6.03063
24.2362 -14.9597 -6.13724
24.2189 -15.0295 -6.17151
24.2248 -15.0804 -6.20237
24.3059 -15.0491 -6.22976
24.6496 -15.0958 -6.40202
24.6667 -15.1457 -6.44374
24.7342 -15.175 -6.48859
24.5044 -15.023 -6.29386
24.6271 -15.0374 -6.34666
24.4003 -15.0185 -6.24962
24.8211 -15.2124 -6.55345
24.8578 -15.2628 -6.62245
24.8879 -15.2871 -6.67441
24.8846 -15.3346 -6.70787
24.8934 -15.3879 -6.7631
24.9041 -15.4308 -6.84192
24.9201 -15.4889 -6.93282
24.9732 -15.5143 -7.04884
25.0171 -15.544 -7.12451
25.0905 -15.5395 -7.17915
25.209 -15.5369 -7.23999
25.1552 -15.6279 -7.33721
25.1065 -15.7091 -7.39855
25.0546 -15.7841 -7.4501
25.0034 -15.8745 -7.49084
24.986 -15.9489 -7.57777
24.9871 -16.0202 -7.64971
25.0095 -16.1028 -7.71741
25.0287 -16.1725 -7.80179
24.9846 -16.2013 -7.81484
24.9512 -16.2092 -7.83504
24.9973 -16.2491 -7.89766
25.0636 -16.3109 -7.98505
25.1026 -16.3706 -8.09714
25.0571 -16.481 -8.23901
25.0427 -16.5235 -8.28608
25.0883 -16.4583 -8.22227
25.1305 -16.4283 -8.18907
25.0227 -16.5542 -8.34238
25.0181 -16.6059 -8.41639
25.0029 -16.6722 -8.53058
24.9617 -16.7622 -8.62444
24.9231 -16.8254 -8.72472
24.8943 -16.8726 -8.82868
24.879 -16.9128 -8.91134
24.8955 -16.9565 -8.97557
24.9233 -16.9991 -9.0551
24.9046 -17.0478 -9.13678
24.8932 -17.0948 -9.21893
24.8851 -17.1353 -9.30383
24.8258 -17.1876 -9.41903
24.8767 -17.1799 -9.36831
24.7456 -17.2159 -9.48394
24.6367 -17.2202 -9.50205
24.5591 -17.2026 -9.51521
24.5178 -17.2057 -9.57491
24.4584 -17.231 -9.64318
24.3596 -17.1851 -9.58387
24.2859 -17.1585 -9.55539
24.3099 -17.1822 -9.62814
24.782 -17.456 -10.3584
24.7362 -17.4754 -10.3289
24.6953 -17.4698 -10.2919
24.671 -17.4705 -10.2323
24.6554 -17.4642 -10.1552
24.6481 -17.4457 -10.0712
25.2012 -17.0265 -10.9581
25.1755 -16.9776 -11.0176
25.2882 -17.0017 -10.9012
25.3597 -16.9894 -10.8365
25.1294 -16.9404 -11.0864
25.4098 -16.9904 -10.7687
25.3672 -17.1465 -10.285
25.395 -17.115 -10.3267
25.4393 -17.0873 -10.3621
25.0894 -17.2918 -10.1747
25.1581 -17.2478 -10.1994
25.2431 -17.2132 -10.2179
25.3138 -17.1646 -10.2445
24.8961 -17.4058 -10.1905
24.9671 -17.38 -10.1636
24.7915 -17.4537 -10.273
24.8374 -17.4293 -10.2002
25.0359 -17.3317 -10.1319
25.4866 -17.0521 -10.3915
25.5284 -17.0232 -10.4245
25.4771 -17.0422 -10.5305
25.4208 -17.0634 -10.6231
25.44 -17.0348 -10.6724
25.4471 -16.9933 -10.709
25.0679 -16.9152 -11.1621
25.0044 -16.9025 -11.2405
24.9527 -16.8851 -11.3235
24.9063 -16.8417 -11.4002
24.8781 -16.775 -11.4768
24.8785 -16.681 -11.5593
24.9062 -16.575 -11.6471
24.9443 -16.4544 -11.7336
24.8924 -16.4283 -11.8202
24.649 -17.4156 -9.99368
24.444 -17.2558 -9.73589
24.5145 -17.2841 -9.74709
24.3836 -17.2206 -9.6736
24.5976 -17.3238 -9.7592
24.6194 -17.3711 -9.84482
24.6407 -17.3986 -9.92049
25.044 -16.1351 -12.0389
25.0819 -16.0782 -12.0764
25.1457 -15.9873 -12.107
25.1228 -15.92 -12.1796
24.983 -16.3309 -11.8202
25.0231 -16.233 -11.897
25.005 -16.2131 -11.9537
25.0173 -16.178 -12.001
25.1196 -15.8156 -12.2782
24.7861 -15.7886 -12.5333
24.7207 -15.8283 -12.5634
25.1101 -15.689 -12.3898
25.0295 -15.6924 -12.4367
24.97 -15.6938 -12.474
24.9135 -15.7147 -12.5029
24.8539 -15.7533 -12.526
24.3649 -15.546 -13.027
24.3509 -15.4047 -13.1456
24.2337 -15.3726 -13.2504
24.121 -15.4374 -13.2911
24.0269 -15.472 -13.3233
23.96 -15.4265 -13.3937
23.8958 -15.4067 -13.4403
23.8305 -15.3838 -13.4729
23.7754 -15.3505 -13.5179
23.7213 -15.3544 -13.5486
23.6898 -15.4024 -13.5072
23.6391 -15.4414 -13.4634
23.5641 -15.4858 -13.4364
23.4543 -15.5191 -13.4125
24.6927 -15.7422 -12.6592
24.6702 -15.6456 -12.7546
24.6385 -15.556 -12.8697
24.6058 -15.4523 -12.9744
24.4852 -15.4313 -13.0524
23.3263 -15.4779 -13.4765
23.2226 -15.4534 -13.5315
23.1505 -15.419 -13.5779
23.1175 -15.3812 -13.6388
16.755 -12.372 -9.1386
17.165 -12.075 -8.23792
17.1762 -12.098 -8.19315
17.1987 -12.1346 -8.1511
17.2631 -12.1171 -8.07391
17.3166 -12.1108 -8.01763
17.3505 -12.15 -7.97881
17.3703 -12.2165 -7.92024
17.411 -12.1762 -7.85509
17.4991 -12.1983 -7.78713
17.4599 -12.1396 -7.81606
17.5235 -12.239 -7.77052
17.5316 -12.1937 -7.74365
17.5733 -12.0951 -7.70991
17.6359 -12.0878 -7.64081
17.6846 -12.0873 -7.60586
17.7214 -12.1558 -7.59048
17.7515 -12.1996 -7.56047
17.7568 -12.1396 -7.55786
17.8901 -11.9943 -7.50646
17.9645 -11.9877 -7.47716
17.7946 -12.0428 -7.56045
17.7637 -12.0821 -7.56543
17.8264 -11.9947 -7.55312
18.5043 -12.2323 -7.09027
18.5276 -12.1644 -7.09832
18.6978 -12.0804 -6.98947
20.9769 -11.7944 -6.41851
21.0545 -11.8143 -6.4164
20.8952 -11.7754 -6.44491
18.2603 -12.1839 -7.28139
18.4362 -12.1888 -7.1538
23.4947 -14.1243 -5.74879
23.5078 -14.2143 -5.73916
23.4233 -14.079 -5.74071
23.5456 -14.2968 -5.76966
23.5052 -14.3467 -5.74963
23.4808 -14.3934 -5.74267
23.3793 -13.9961 -5.71361
23.5323 -14.4534 -5.79025
23.615 -14.5376 -5.85411
23.7993 -14.5744 -5.9268
23.9454 -14.607 -5.94941
24.0857 -14.6434 -5.9839
24.263 -14.6685 -6.04958
24.2498 -14.7333 -6.05666
24.2297 -14.7894 -6.05109
24.2043 -14.8446 -6.04976
24.1689 -14.8748 -6.07133
24.1988 -14.9146 -6.08877
21.4344 -11.7927 -6.36577
21.3336 -11.7836 -6.36705
21.1542 -11.7945 -6.39216
21.2516 -11.7746 -6.37808
21.5331 -11.811 -6.35924
21.6042 -11.8273 -6.32777
21.7118 -11.8093 -6.3273
21.8815 -11.7836 -6.32319
22.6272 -12.2763 -6.10486
22.6631 -12.3464 -6.07305
22.5851 -12.1836 -6.13272
22.5415 -12.093 -6.16095
22.1887 -11.9984 -6.2052
22.2591 -11.9859 -6.21848
22.3447 -11.9811 -6.21067
22.4319 -11.9951 -6.19481
22.5025 -12.0224 -6.17962
22.2106 -11.9377 -6.24439
22.0462 -11.7528 -6.32519
22.1711 -11.7296 -6.33422
22.2117 -11.7939 -6.29478
22.2593 -11.8554 -6.26714
23.3077 -13.0255 -5.89322
23.2924 -13.1578 -5.87185
23.2726 -13.2679 -5.86357
23.2865 -13.3644 -5.83756
23.2915 -13.4812 -5.82032
23.2964 -13.5869 -5.79586
23.2987 -13.6699 -5.78829
23.3341 -13.7075 -5.78723
23.3832 -13.7423 -5.79677
23.3754 -13.8655 -5.76497
22.7189 -12.2983 -6.0995
23.2342 -12.5231 -6.02828
23.2195 -12.6428 -5.98982
23.2729 -12.6971 -5.97139
23.3273 -12.7498 -5.9498
23.3175 -12.889 -5.92434
23.0341 -12.2645 -6.09177
23.1256 -12.2753 -6.08141
23.1971 -12.3364 -6.06288
22.7795 -12.2346 -6.13279
22.8847 -12.244 -6.11552
22.9702 -12.2421 -6.11137
23.255 -12.3956 -6.05296
24.3121 -14.891 -6.13377
24.3834 -14.9216 -6.19127
24.3319 -14.9904 -6.20109
24.7393 -15.0522 -6.40497
24.7501 -15.1141 -6.44881
24.8415 -15.1429 -6.49813
24.4614 -14.9677 -6.24208
24.5941 -14.9725 -6.2934
24.7152 -14.9899 -6.35727
24.9287 -15.1556 -6.57066
24.9371 -15.2136 -6.61576
24.9474 -15.2494 -6.67256
24.9575 -15.289 -6.72009
24.9667 -15.3338 -6.77386
24.9805 -15.3793 -6.84259
25.0044 -15.4272 -6.92241
25.0323 -15.4633 -7.01591
25.0682 -15.4988 -7.10134
25.1548 -15.4839 -7.13716
25.236 -15.4473 -7.13963
25.3041 -15.4623 -7.20573
25.3235 -15.519 -7.30305
25.268 -15.594 -7.36191
25.2175 -15.6781 -7.42193
25.163 -15.7565 -7.47895
25.1082 -15.8344 -7.53205
25.0716 -15.9148 -7.59057
25.0592 -15.9947 -7.65369
25.0634 -16.0684 -7.72328
25.078 -16.1377 -7.79928
25.0457 -16.236 -7.89219
25.095 -16.2058 -7.88189
25.1139 -16.2733 -7.96752
25.1343 -16.326 -8.06421
25.1628 -16.3756 -8.15501
25.085 -16.5135 -8.29932
25.0603 -16.5655 -8.36617
25.1349 -16.4872 -8.28611
25.1841 -16.4258 -8.2553
25.063 -16.6237 -8.46112
25.0584 -16.677 -8.56081
25.0178 -16.7474 -8.6194
24.9832 -16.8209 -8.69498
24.9474 -16.8686 -8.79485
24.9213 -16.912 -8.89171
24.9469 -16.9528 -8.96785
24.9772 -16.9958 -9.05067
24.955 -17.0434 -9.12987
24.9442 -17.0917 -9.20278
24.9418 -17.1358 -9.28326
24.9299 -17.1813 -9.36048
24.8991 -17.2141 -9.43089
24.8489 -17.2428 -9.50018
24.7935 -17.2743 -9.58183
24.7029 -17.2651 -9.5867
24.6121 -17.2484 -9.58823
24.5658 -17.2649 -9.66748
24.7507 -17.4652 -10.26
24.7344 -17.4557 -10.208
24.7237 -17.4498 -10.1369
24.718 -17.4336 -10.0582
24.7159 -17.4161 -9.9788
25.3035 -16.9233 -10.9626
25.2624 -16.8872 -11.046
25.3925 -16.921 -10.89
25.4798 -16.9183 -10.8077
25.2218 -16.8486 -11.1316
25.4782 -16.9501 -10.7249
25.4121 -17.1257 -10.2034
25.4461 -17.1069 -10.253
25.4824 -17.0652 -10.2627
25.5335 -17.0386 -10.287
25.119 -17.2937 -10.1089
25.1571 -17.2589 -10.1443
25.2298 -17.2126 -10.1469
25.3426 -17.171 -10.1513
24.8769 -17.4122 -10.119
24.9359 -17.3972 -10.1061
24.9967 -17.3578 -10.0833
24.7855 -17.4387 -10.1997
24.8284 -17.4233 -10.1227
25.0746 -17.3184 -10.0616
25.5765 -17.0103 -10.3168
25.6186 -16.9892 -10.3531
25.5639 -16.9928 -10.4607
25.5071 -17.0007 -10.5753
25.5008 -16.9867 -10.6548
25.4844 -16.9643 -10.6897
25.1187 -16.8382 -11.2015
25.0453 -16.8324 -11.2752
24.9844 -16.8112 -11.3494
24.9404 -16.7783 -11.4124
24.9443 -16.7099 -11.4719
24.9612 -16.6156 -11.5496
24.9968 -16.5007 -11.6391
25.06 -16.3437 -11.74
24.7113 -17.409 -9.90267
24.68 -17.3492 -9.75385
24.6522 -17.3081 -9.6685
24.699 -17.387 -9.82858
25.1113 -16.0837 -12.0148
25.068 -16.1332 -11.9951
25.1687 -16.0201 -12.0307
25.2313 -15.9404 -12.0339
25.2151 -15.8804 -12.1149
25.2015 -15.7957 -12.2022
25.0704 -16.2289 -11.8444
25.0825 -16.1684 -11.9094
25.0596 -16.1658 -11.9512
25.0403 -16.165 -11.9782
25.1891 -15.683 -12.3083
24.8038 -15.6891 -12.6019
24.746 -15.7372 -12.6042
25.1678 -15.5348 -12.4483
25.0744 -15.5573 -12.5018
25.0047 -15.5792 -12.5422
24.9412 -15.6054 -12.5736
24.8749 -15.6455 -12.598
24.4975 -15.2908 -13.1613
24.3485 -15.2845 -13.2424
24.2505 -15.2759 -13.3124
24.1486 -15.3155 -13.3476
24.0364 -15.3649 -13.4014
23.9402 -15.352 -13.4576
23.8724 -15.3427 -13.4993
23.8129 -15.3271 -13.5278
23.7771 -15.3158 -13.5459
23.7431 -15.3027 -13.5652
23.6911 -15.289 -13.614
23.6494 -15.3334 -13.5959
23.5989 -15.3728 -13.5628
23.5329 -15.4017 -13.5228
23.4427 -15.4435 -13.4972
24.751 -15.6568 -12.6921
24.753 -15.5326 -12.8046
24.7051 -15.4315 -12.9122
24.6749 -15.3615 -12.9875
24.6002 -15.335 -13.0513
23.3332 -15.4217 -13.5534
23.2496 -15.4057 -13.5882
23.2206 -15.3652 -13.6307
23.1971 -15.3394 -13.6822
17.2119 -12.0482 -8.15948
17.2337 -12.0767 -8.10629
17.3031 -12.0673 -8.03661
17.3525 -12.0814 -7.97332
17.3777 -12.1212 -7.91094
17.4211 -12.0858 -7.86056
17.507 -12.1111 -7.77422
17.4603 -12.0494 -7.81211
17.5133 -12.0135 -7.76789
17.5772 -11.9594 -7.72329
17.6312 -11.9875 -7.65688
17.6783 -12.009 -7.61523
17.7116 -12.0284 -7.59787
17.7268 -12.0866 -7.58481
17.8527 -11.9442 -7.53498
17.747 -12.0354 -7.58253
17.764 -11.9955 -7.57714
17.7905 -11.9528 -7.5863
21.101 -11.7671 -6.41125
23.5034 -14.0323 -5.76253
23.5821 -14.0604 -5.7756
23.5871 -14.161 -5.76734
23.6144 -14.2503 -5.77281
23.4597 -13.9779 -5.75651
23.6603 -14.3272 -5.81831
23.6237 -14.3743 -5.81437
23.587 -14.4182 -5.81064
23.4451 -13.8854 -5.77127
23.6861 -14.4995 -5.86646
23.859 -14.5462 -5.92238
24.0247 -14.5862 -5.9651
24.1815 -14.6081 -6.01314
24.3288 -14.6057 -6.06446
24.4374 -14.6533 -6.10444
24.4005 -14.7127 -6.1141
24.365 -14.7697 -6.10051
24.3153 -14.8204 -6.08998
24.264 -14.8668 -6.08987
21.4511 -11.7284 -6.37723
21.5638 -11.7392 -6.37764
21.3331 -11.732 -6.37842
21.2171 -11.7494 -6.39346
21.6559 -11.7601 -6.36332
21.7983 -11.7071 -6.3514
21.9593 -11.6392 -6.3552
22.0422 -11.6678 -6.34617
22.6783 -12.2108 -6.13591
22.6318 -12.1161 -6.16268
22.5784 -12.0305 -6.18799
22.3072 -11.9168 -6.24306
22.4129 -11.9221 -6.22533
22.5092 -11.9614 -6.20725
22.1364 -11.6621 -6.34506
22.2409 -11.6416 -6.33665
22.2836 -11.7091 -6.31432
22.3261 -11.776 -6.28142
22.3761 -11.8454 -6.24645
23.3745 -12.971 -5.9222
23.3594 -13.1227 -5.89186
23.3297 -13.2584 -5.86682
23.3436 -13.3863 -5.85188
23.3434 -13.508 -5.82509
23.3406 -13.6104 -5.81149
23.3879 -13.6302 -5.81703
23.4449 -13.6457 -5.82416
23.444 -13.7685 -5.79944
23.3011 -12.4588 -6.03748
23.2841 -12.5779 -6.00686
23.331 -12.6195 -5.98386
23.3859 -12.6573 -5.9957
23.3817 -12.8153 -5.95929
23.0274 -12.1864 -6.12252
23.0998 -12.1837 -6.11222
23.2241 -12.2102 -6.10678
23.1746 -12.1484 -6.12313
23.2778 -12.2674 -6.08533
22.7317 -12.1414 -6.16343
22.8392 -12.1579 -6.15085
22.9427 -12.1726 -6.13923
23.3236 -12.3323 -6.06465
24.4336 -14.8661 -6.16208
24.3523 -14.8441 -6.12989
24.5457 -14.9081 -6.22725
24.8419 -15.0787 -6.45641
24.8227 -15.0146 -6.41818
24.9344 -15.1036 -6.5175
24.6859 -14.9284 -6.30328
24.7987 -14.9553 -6.36871
25.0142 -15.1153 -6.59613
25.0181 -15.1675 -6.6338
25.0219 -15.21 -6.67735
25.0314 -15.2556 -6.72092
25.0405 -15.2922 -6.77748
25.0575 -15.337 -6.8376
25.0767 -15.3788 -6.91394
25.0962 -15.418 -6.99811
25.1118 -15.4588 -7.06639
25.1756 -15.4319 -7.06335
25.2432 -15.3926 -7.0539
25.2955 -15.395 -7.12978
25.371 -15.4551 -7.25583
25.3465 -15.4103 -7.18479
25.3983 -15.5038 -7.35082
25.3589 -15.5712 -7.40413
25.3129 -15.6467 -7.45804
25.2619 -15.7263 -7.50992
25.2046 -15.8007 -7.56471
25.1624 -15.884 -7.61289
25.1379 -15.9622 -7.67132
25.1302 -16.0352 -7.73738
25.1378 -16.1054 -7.80327
25.1468 -16.1665 -7.88111
25.1618 -16.2294 -7.9606
25.1737 -16.2834 -8.04636
25.1834 -16.3252 -8.1211
25.2216 -16.3586 -8.19449
25.1162 -16.5644 -8.39518
25.1845 -16.5059 -8.36864
25.2811 -16.4164 -8.32019
25.1089 -16.6391 -8.50912
25.0969 -16.6962 -8.58022
25.0661 -16.7396 -8.63071
25.0404 -16.811 -8.69074
25.0035 -16.8653 -8.77532
24.9739 -16.8963 -8.87757
25.0031 -16.9486 -8.95542
25.042 -16.9993 -9.04611
25.006 -17.0412 -9.13326
24.9837 -17.0846 -9.18469
24.9909 -17.1281 -9.25004
24.998 -17.1831 -9.33782
24.9617 -17.2272 -9.41835
24.9225 -17.2555 -9.49425
24.8735 -17.2855 -9.57229
24.82 -17.3134 -9.65855
24.7411 -17.3052 -9.67272
24.7785 -17.4319 -10.1263
24.7818 -17.4289 -10.0412
24.7842 -17.4149 -9.95639
24.7811 -17.4024 -9.87926
25.4281 -16.8485 -10.9503
25.3742 -16.8278 -11.0114
25.3509 -16.8053 -11.0824
25.4854 -16.8469 -10.883
25.5465 -16.9082 -10.7159
25.5568 -16.8411 -10.7628
25.5406 -16.8281 -10.8317
25.338 -16.7517 -11.1429
25.2379 -16.7613 -11.1911
25.5225 -16.9368 -10.6629
25.457 -17.1127 -10.1149
25.4947 -17.0775 -10.1818
25.5597 -17.0364 -10.187
25.6127 -17.0047 -10.2118
25.1559 -17.2642 -10.0466
25.1929 -17.2321 -10.0927
25.2898 -17.204 -10.0826
25.3871 -17.1511 -10.059
24.9178 -17.3984 -10.0447
24.875 -17.4112 -10.0474
24.971 -17.3698 -10.0297
25.0392 -17.3344 -10.0115
24.8341 -17.4187 -10.0397
25.119 -17.2815 -9.99265
25.6529 -16.976 -10.2442
25.6814 -16.9437 -10.2795
25.6459 -16.9541 -10.3886
25.5962 -16.9535 -10.4918
25.564 -16.9506 -10.591
25.1436 -16.7642 -11.2526
25.0668 -16.7618 -11.3218
25.0051 -16.7397 -11.3958
25.013 -16.6509 -11.4553
25.038 -16.5468 -11.5333
25.0798 -16.4371 -11.6263
25.1421 -16.1945 -11.814
25.1241 -16.3385 -11.6857
25.1522 -16.2503 -11.745
24.7732 -17.3807 -9.80968
24.7607 -17.3515 -9.7419
25.1641 -16.059 -11.954
25.1082 -16.1156 -11.9569
25.2412 -16.0014 -11.956
25.3132 -15.9322 -11.9521
25.3076 -15.8758 -12.0488
25.2877 -15.7999 -12.1257
25.2722 -15.7054 -12.2135
25.1355 -16.1344 -11.8934
25.2578 -15.5874 -12.3227
24.8258 -15.5853 -12.6985
25.2453 -15.4424 -12.4341
25.1673 -15.3623 -12.5584
25.1037 -15.4285 -12.5874
25.0382 -15.4642 -12.6196
24.9786 -15.497 -12.6577
24.9112 -15.5423 -12.6917
24.6456 -15.2233 -13.1256
24.5901 -15.1606 -13.2215
24.4488 -15.1882 -13.2548
24.3321 -15.2065 -13.3215
24.2171 -15.2267 -13.3841
24.0977 -15.2619 -13.4419
23.9958 -15.2907 -13.4935
23.9091 -15.285 -13.5126
23.845 -15.2788 -13.5482
23.7865 -15.2814 -13.5716
23.7423 -15.2541 -13.6226
23.6813 -15.2291 -13.6657
23.6237 -15.2608 -13.6608
23.565 -15.3053 -13.6501
23.4996 -15.3381 -13.6124
23.4248 -15.3826 -13.583
24.8692 -15.4776 -12.8047
24.8041 -15.3871 -12.8742
24.7512 -15.3131 -12.9526
24.7084 -15.2704 -13.0413
23.3213 -15.3693 -13.6223
23.2878 -15.3207 -13.6767
23.2316 -15.2979 -13.7332
17.2753 -12.0278 -8.07138
17.3332 -12.0268 -7.98793
17.383 -12.0462 -7.92044
17.4187 -12.0084 -7.8699
17.7337 -11.981 -7.60659
17.7354 -12.0036 -7.59407
23.519 -13.9583 -5.77333
23.5735 -13.9686 -5.79235
23.6744 -13.9601 -5.84151
23.6773 -14.1045 -5.80393
23.6934 -14.2068 -5.80145
23.7215 -14.288 -5.84083
23.5081 -13.8925 -5.77982
23.757 -14.3522 -5.87461
23.7489 -14.3966 -5.86894
23.7563 -14.4597 -5.88023
23.507 -13.7948 -5.79827
23.944 -14.522 -5.93789
24.099 -14.5533 -5.98537
24.2353 -14.5605 -6.01858
24.3516 -14.5299 -6.0631
24.4626 -14.5828 -6.09904
24.5723 -14.6255 -6.16665
24.5407 -14.6945 -6.16459
24.5182 -14.764 -6.15669
24.4284 -14.813 -6.13753
21.5884 -11.6721 -6.38684
21.7005 -11.6667 -6.35456
21.8624 -11.6109 -6.37668
22.0967 -11.5885 -6.35799
22.1182 -11.621 -6.35114
22.6769 -12.0503 -6.19042
22.6146 -11.9642 -6.21188
22.5305 -11.8653 -6.23408
22.1855 -11.5936 -6.35156
22.3028 -11.552 -6.34155
22.3525 -11.6261 -6.3169
22.3951 -11.6987 -6.29477
22.4469 -11.7715 -6.26346
23.4508 -12.8989 -5.96375
23.4332 -13.0726 -5.90521
23.4189 -13.2649 -5.86836
23.3978 -13.4386 -5.85288
23.3825 -13.5425 -5.82805
23.4318 -13.5311 -5.84287
23.506 -13.5339 -5.85228
23.5066 -13.6784 -5.8329
23.3586 -12.4127 -6.05008
23.3326 -12.5191 -6.02347
23.3794 -12.5205 -6.03946
23.4524 -12.502 -6.04154
23.4479 -12.7022 -5.98984
23.0057 -12.1041 -6.1495
23.0721 -12.124 -6.13442
23.1291 -12.088 -6.13727
23.2437 -12.0871 -6.13306
23.2968 -12.1419 -6.11545
23.1908 -12.0334 -6.14796
23.3445 -12.2045 -6.10788
22.7838 -12.0692 -6.18878
22.9027 -12.0709 -6.17316
23.3853 -12.2769 -6.08044
24.5478 -14.8343 -6.18697
24.6673 -14.8705 -6.24769
24.9167 -15.0388 -6.48491
24.8909 -14.9773 -6.44648
25.0071 -15.0615 -6.55471
24.7741 -14.8937 -6.32176
24.8667 -14.9189 -6.39708
25.0855 -15.0783 -6.63784
25.0867 -15.13 -6.66614
25.091 -15.1747 -6.69524
25.0936 -15.2129 -6.73635
25.1039 -15.2523 -6.78306
25.1277 -15.299 -6.83215
25.1479 -15.3405 -6.90293
25.1641 -15.3796 -6.98588
25.2256 -15.3374 -6.97557
25.2893 -15.3363 -7.05558
25.3481 -15.3554 -7.13495
25.3951 -15.3972 -7.21253
25.4327 -15.4495 -7.29676
25.4597 -15.4976 -7.39763
25.4326 -15.5627 -7.44594
25.3963 -15.6314 -7.49829
25.3536 -15.7119 -7.54261
25.2992 -15.7839 -7.59317
25.2506 -15.8582 -7.63702
25.2176 -15.9251 -7.69215
25.2101 -15.9978 -7.75465
25.2078 -16.0668 -7.8225
25.2061 -16.1298 -7.88664
25.2128 -16.1863 -7.95617
25.2264 -16.2443 -8.03156
25.2303 -16.296 -8.11541
25.287 -16.3115 -8.18753
25.1626 -16.5994 -8.48569
25.2304 -16.547 -8.47013
25.3531 -16.3126 -8.22244
25.3963 -16.3456 -8.30531
25.3705 -16.4321 -8.41139
25.3011 -16.5051 -8.47918
25.1392 -16.6746 -8.58089
25.1098 -16.7314 -8.64445
25.0839 -16.7854 -8.70179
25.0546 -16.8378 -8.77598
25.0253 -16.8984 -8.85978
25.0561 -16.929 -8.94353
25.0964 -17.012 -9.09948
25.0589 -17.0501 -9.15195
25.0975 -16.9697 -9.00684
25.0282 -17.0979 -9.20399
25.0476 -17.145 -9.28007
25.0702 -17.1845 -9.35919
25.0263 -17.2295 -9.41624
24.9865 -17.2493 -9.48733
24.9426 -17.2908 -9.55229
24.8922 -17.3117 -9.63768
24.8349 -17.3443 -9.7225
24.8577 -17.4003 -9.93519
24.8516 -17.3841 -9.85406
24.8444 -17.3655 -9.78564
25.5126 -16.7825 -10.9406
25.471 -16.7775 -11.0052
25.4299 -16.7692 -11.0535
25.4276 -16.7284 -11.1065
25.551 -16.7873 -10.8818
25.6074 -16.9009 -10.6242
25.6134 -16.8503 -10.6919
25.6155 -16.7851 -10.7392
25.5859 -16.7865 -10.8067
25.5711 -16.7885 -10.8461
25.4184 -16.6796 -11.1649
25.3404 -16.6893 -11.2014
25.2606 -16.6832 -11.2742
25.4853 -17.0951 -10.0233
25.5589 -17.0524 -10.0858
25.6308 -16.9996 -10.111
25.6809 -16.9672 -10.1415
25.217 -17.2346 -9.99009
25.2319 -17.2218 -10.0432
25.3044 -17.184 -10.0123
25.3993 -17.1389 -9.97677
24.9155 -17.3975 -9.99206
24.9599 -17.3786 -9.97601
24.8922 -17.3941 -9.96904
25.0175 -17.3495 -9.95916
25.094 -17.3177 -9.93962
25.1869 -17.249 -9.91859
25.7096 -16.9326 -10.1749
25.7444 -16.9101 -10.215
25.7073 -16.9102 -10.3171
25.6653 -16.9084 -10.419
25.6353 -16.9104 -10.5216
25.1508 -16.7048 -11.3205
25.0787 -16.6917 -11.3829
25.0927 -16.6055 -11.4503
25.1351 -16.4813 -11.52
25.149 -16.3847 -11.627
25.222 -16.1644 -11.7928
25.2197 -16.0841 -11.8698
25.1566 -16.3285 -11.6668
25.1751 -16.2747 -11.6956
25.2123 -16.2109 -11.7355
25.3089 -16.0051 -11.8664
25.395 -15.9424 -11.8528
25.376 -15.8671 -11.9657
25.3478 -15.8104 -12.0497
25.3445 -15.7343 -12.1119
25.3407 -15.6427 -12.2118
25.327 -15.5227 -12.3109
25.3249 -15.369 -12.4111
25.2477 -15.2935 -12.5492
25.1895 -15.2328 -12.6744
25.1146 -15.3038 -12.6783
25.0606 -15.3627 -12.6752
25.0131 -15.3833 -12.7238
24.9538 -15.4285 -12.7764
24.7429 -15.1553 -13.0892
24.7011 -15.1051 -13.1724
24.6531 -15.0216 -13.243
24.5197 -15.088 -13.2804
24.4069 -15.129 -13.3124
24.3074 -15.1294 -13.3708
24.1708 -15.1508 -13.4495
24.0394 -15.2122 -13.5065
23.9549 -15.2379 -13.5278
23.8998 -15.2299 -13.5669
23.8188 -15.208 -13.6121
23.7382 -15.1922 -13.667
23.6835 -15.1821 -13.7024
23.6267 -15.1995 -13.7128
23.5403 -15.2261 -13.7217
23.4659 -15.2822 -13.6984
23.394 -15.3168 -13.652
24.9038 -15.3431 -12.8632
24.8461 -15.2603 -12.9327
24.7935 -15.2011 -13.0111
23.3487 -15.2706 -13.7196
23.5633 -13.8974 -5.78405
23.6131 -13.8818 -5.8205
23.6654 -13.8038 -5.86171
23.7489 -13.8135 -5.88687
23.7981 -13.9519 -5.88758
23.7685 -14.0679 -5.85409
23.7747 -14.1701 -5.84251
23.8097 -14.2663 -5.85452
23.8427 -14.3461 -5.88652
23.5623 -13.8251 -5.79791
23.8608 -14.4058 -5.89262
23.8861 -14.4626 -5.90119
23.5668 -13.7291 -5.83382
24.0234 -14.5013 -5.94894
24.1453 -14.5157 -5.98223
24.241 -14.5006 -6.00317
24.2879 -14.4551 -6.03391
24.3835 -14.4597 -6.07979
24.4597 -14.5153 -6.1174
24.5449 -14.5494 -6.16203
24.6438 -14.5584 -6.20571
24.6832 -14.6306 -6.23846
24.6514 -14.6858 -6.2109
24.6345 -14.7383 -6.20948
24.6486 -14.8006 -6.21742
22.1993 -11.5283 -6.36961
22.7237 -11.9876 -6.21179
22.6785 -11.9137 -6.2503
22.5668 -11.7639 -6.26837
22.6675 -11.8186 -6.26409
22.3958 -11.478 -6.3401
22.4238 -11.5463 -6.32178
22.4616 -11.62 -6.30015
22.5035 -11.694 -6.28341
23.5289 -12.9098 -5.97435
23.5075 -13.0318 -5.93138
23.5106 -12.7555 -6.00406
23.5008 -13.1713 -5.8993
23.5085 -13.294 -5.8713
23.4661 -13.4084 -5.86533
23.5352 -13.4056 -5.87766
23.5751 -13.4939 -5.88305
23.5692 -13.6107 -5.86593
23.4195 -12.3734 -6.06944
23.4886 -12.3019 -6.09916
23.5339 -12.3722 -6.10278
23.5143 -12.5675 -6.05247
22.9938 -12.0121 -6.17989
23.071 -12.0462 -6.16254
23.1334 -11.9874 -6.17238
23.2497 -11.9707 -6.15808
23.3055 -12.0222 -6.14492
23.3594 -12.0756 -6.13907
23.1897 -11.9232 -6.17343
23.4079 -12.14 -6.12484
22.8233 -11.9951 -6.20487
22.9133 -11.9729 -6.20179
23.4487 -12.2193 -6.11503
24.7481 -14.8304 -6.28574
24.9845 -15.0036 -6.51476
24.9588 -14.9469 -6.46536
25.0711 -15.0203 -6.59809
24.8411 -14.8598 -6.35283
24.924 -14.8845 -6.42849
25.1631 -15.0388 -6.70003
25.1517 -15.1043 -6.71463
25.1375 -15.1446 -6.72294
25.1512 -15.1842 -6.75279
25.1536 -15.222 -6.78015
25.1787 -15.2493 -6.83167
25.2085 -15.2944 -6.89523
25.2761 -15.2847 -6.97215
25.3523 -15.2886 -7.06654
25.4123 -15.3409 -7.16726
25.449 -15.3889 -7.26205
25.4925 -15.4479 -7.34585
25.5204 -15.5117 -7.44227
25.4957 -15.5664 -7.4903
25.4699 -15.6328 -7.54126
25.4348 -15.7075 -7.59035
25.3889 -15.7856 -7.62758
25.3316 -15.8437 -7.6717
25.2871 -15.8992 -7.70012
25.2896 -15.9581 -7.7552
25.3062 -16.032 -7.83697
25.281 -16.1053 -7.90153
25.2563 -16.1448 -7.95718
25.2746 -16.1935 -8.02084
25.287 -16.2537 -8.09605
25.3449 -16.2605 -8.14834
25.1993 -16.6541 -8.60039
25.2684 -16.6019 -8.57426
25.3841 -16.2713 -8.17121
25.4217 -16.2695 -8.20953
25.4951 -16.2789 -8.28257
25.4541 -16.3767 -8.39534
25.421 -16.4408 -8.47986
25.3652 -16.4971 -8.52244
25.3205 -16.559 -8.57204
25.1521 -16.7224 -8.67504
25.1171 -16.7645 -8.71411
25.1024 -16.8143 -8.77724
25.0783 -16.8676 -8.85825
25.1107 -16.9032 -8.93504
25.1394 -16.9774 -9.06922
25.1367 -17.015 -9.13587
25.1098 -17.0489 -9.1806
25.0842 -17.1008 -9.22657
25.1431 -16.9424 -8.99673
25.1092 -17.1333 -9.30179
25.086 -17.2272 -9.4342
25.144 -17.1654 -9.37884
25.0384 -17.2523 -9.47822
25.0075 -17.2747 -9.53898
24.9611 -17.3052 -9.61346
24.9058 -17.342 -9.69385
24.9251 -17.3718 -9.81995
24.9345 -17.3666 -9.88238
24.9163 -17.3544 -9.75667
25.5753 -16.7248 -10.9217
25.5431 -16.7153 -10.9973
25.4933 -16.7132 -11.0617
25.4895 -16.6569 -11.1245
25.5956 -16.7497 -10.8575
25.6711 -16.8653 -10.5414
25.6604 -16.8381 -10.6155
25.664 -16.7956 -10.6726
25.6764 -16.74 -10.7277
25.6366 -16.7366 -10.8011
25.4622 -16.6035 -11.1825
25.4096 -16.6321 -11.2137
25.3606 -16.6324 -11.2516
25.3309 -16.5972 -11.3018
25.2751 -16.6128 -11.3423
25.2097 -16.6495 -11.3461
25.4944 -17.089 -9.93605
25.577 -17.04 -9.97834
25.6392 -16.9889 -10.0146
25.7013 -16.967 -10.0435
25.7356 -16.9231 -10.0769
25.2996 -17.1874 -9.94044
25.3945 -17.1345 -9.8964
24.9465 -17.3693 -9.92848
25.0032 -17.3511 -9.90752
25.0616 -17.3269 -9.89548
25.1168 -17.2858 -9.87507
25.2774 -17.172 -9.86262
25.182 -17.2374 -9.83307
25.7611 -16.8879 -10.1139
25.7943 -16.8656 -10.1595
25.7708 -16.8808 -10.2601
25.7309 -16.8795 -10.3581
25.706 -16.8839 -10.4581
25.1432 -16.6435 -11.3801
25.1578 -16.5782 -11.4403
25.19 -16.5093 -11.4539
25.2283 -16.4336 -11.4968
25.2125 -16.3718 -11.5777
25.2017 -16.3117 -11.6511
25.2786 -16.1655 -11.7498
25.294 -16.0868 -11.7992
25.2454 -16.2327 -11.6932
25.376 -16.041 -11.7898
25.445 -16.0097 -11.7491
25.4731 -15.9253 -11.7833
25.4515 -15.8548 -11.8958
25.4064 -15.7824 -12.0069
25.4114 -15.6887 -12.0935
25.3959 -15.5895 -12.1942
25.3783 -15.4783 -12.2677
25.4062 -15.3795 -12.3311
25.3752 -15.243 -12.4314
25.3154 -15.2041 -12.5442
25.2612 -15.1537 -12.6642
25.1914 -15.095 -12.7637
25.122 -15.1828 -12.7717
25.0551 -15.2748 -12.7597
24.9908 -15.2973 -12.826
24.8298 -15.0874 -13.0747
24.7816 -15.0553 -13.1394
24.7527 -15.0008 -13.1932
24.5719 -14.9945 -13.3239
24.7416 -14.9151 -13.2367
24.6796 -14.9254 -13.3
24.4391 -15.0623 -13.3589
24.3189 -15.0603 -13.4226
24.2051 -15.0728 -13.4968
24.0792 -15.1377 -13.5325
23.9713 -15.1802 -13.5509
23.915 -15.1648 -13.6015
23.8738 -15.1313 -13.6438
23.8022 -15.1455 -13.6806
23.7303 -15.1466 -13.7184
23.6611 -15.1538 -13.746
23.5865 -15.1697 -13.7729
23.4858 -15.17 -13.7932
23.4167 -15.2164 -13.7528
24.9317 -15.1956 -12.8966
24.8859 -15.1351 -12.998
23.5882 -13.8509 -5.80814
23.6076 -13.7951 -5.8321
23.6327 -13.6816 -5.87156
23.7103 -13.6848 -5.89194
23.7935 -13.6563 -5.92383
23.8466 -13.8247 -5.9231
23.9058 -13.9687 -5.91778
23.8641 -14.0677 -5.89811
23.8423 -14.1393 -5.87489
23.8807 -14.2236 -5.9003
23.9517 -14.3291 -5.93194
23.9606 -14.4051 -5.93806
23.9636 -14.4547 -5.92314
24.0632 -14.4645 -5.9484
24.154 -14.4716 -5.97276
24.1868 -14.4342 -5.98915
24.2056 -14.382 -6.01699
24.3016 -14.3954 -6.05701
24.3839 -14.3914 -6.09605
24.4628 -14.4504 -6.12545
24.5249 -14.4935 -6.15117
24.5996 -14.489 -6.18369
24.7168 -14.4636 -6.22911
24.7316 -14.5721 -6.2687
24.7731 -14.6445 -6.28679
24.7387 -14.6904 -6.26203
24.7076 -14.7255 -6.24856
24.72 -14.7717 -6.26858
22.7679 -11.9403 -6.23225
22.7711 -11.8726 -6.25092
22.5949 -11.6854 -6.2726
22.6787 -11.7211 -6.25829
22.7996 -11.7698 -6.26347
22.4914 -11.4718 -6.33453
22.531 -11.5395 -6.31264
22.5669 -11.6175 -6.29343
23.5669 -12.8045 -6.00887
23.5886 -12.9254 -5.98779
23.5729 -13.0189 -5.95079
23.5717 -13.1238 -5.90768
23.5807 -12.6213 -6.05886
23.568 -13.233 -5.88375
23.5711 -13.3252 -5.87312
23.5924 -13.4013 -5.89817
23.6216 -13.4718 -5.89849
23.6242 -13.5574 -5.89015
23.5167 -12.1442 -6.1462
23.5592 -12.1997 -6.15746
23.6153 -12.232 -6.16453
23.5935 -12.4145 -6.11363
22.9861 -11.9244 -6.20344
23.0631 -11.9506 -6.18424
23.1245 -11.8884 -6.20074
23.2428 -11.8695 -6.19813
23.3035 -11.9163 -6.18214
23.3618 -11.9596 -6.17071
23.4275 -12.001 -6.17273
23.1816 -11.8267 -6.2104
23.4755 -12.0792 -6.15426
22.8444 -11.9241 -6.2242
22.9166 -11.9035 -6.21321
24.8069 -14.7986 -6.32467
25.0479 -14.9652 -6.54372
25.0086 -14.9046 -6.50495
25.1355 -14.9784 -6.63068
24.8891 -14.8235 -6.39185
24.9682 -14.8442 -6.46811
25.2165 -14.9773 -6.72945
25.2631 -15.0322 -6.79425
25.2287 -15.0931 -6.78352
25.191 -15.1447 -6.78044
25.2047 -15.1988 -6.81615
25.2474 -15.2346 -6.88956
25.3176 -15.2263 -6.96634
25.395 -15.2264 -7.04547
25.4376 -15.2815 -7.13951
25.4683 -15.3333 -7.24008
25.5 -15.3914 -7.32577
25.5336 -15.4519 -7.41081
25.5636 -15.5165 -7.51244
25.5494 -15.5787 -7.53948
25.5319 -15.6385 -7.58457
25.5082 -15.716 -7.64547
25.4675 -15.7949 -7.68846
25.41 -15.8534 -7.71272
25.3561 -15.9122 -7.73241
25.3785 -15.9725 -7.79893
25.4122 -16.0226 -7.87914
25.3707 -16.0919 -7.93405
25.3262 -16.1478 -7.98903
25.3441 -16.2043 -8.07279
25.3978 -16.2232 -8.13401
25.2583 -16.6789 -8.68991
25.2006 -16.7265 -8.7416
25.3094 -16.6184 -8.66583
25.4697 -16.1977 -8.15465
25.5665 -16.1849 -8.18169
25.5979 -16.2488 -8.32601
25.5456 -16.346 -8.41275
25.4914 -16.4299 -8.50047
25.4265 -16.4915 -8.58023
25.3677 -16.5628 -8.63117
25.1507 -16.7806 -8.77276
25.1362 -16.8476 -8.85749
25.169 -16.8891 -8.94835
25.1894 -16.942 -9.04031
25.1842 -16.9915 -9.12659
25.1595 -17.0363 -9.19279
25.133 -17.081 -9.24687
25.1716 -17.1046 -9.3043
25.1353 -17.2043 -9.47606
25.0736 -17.2553 -9.51388
25.2272 -17.1029 -9.35992
25.1958 -17.1408 -9.44037
25.0336 -17.287 -9.59089
24.9788 -17.3272 -9.66899
24.9918 -17.3324 -9.73446
24.9996 -17.3434 -9.79807
24.9954 -17.3393 -9.85498
25.6446 -16.6834 -10.8828
25.6002 -16.6515 -10.9716
25.5597 -16.6351 -11.0659
25.5335 -16.5848 -11.1546
25.7216 -16.8448 -10.4838
25.7104 -16.8206 -10.5467
25.7027 -16.7984 -10.6106
25.7163 -16.7508 -10.6488
25.6943 -16.6872 -10.7962
25.7341 -16.6936 -10.7107
25.5086 -16.5553 -11.2483
25.4411 -16.5844 -11.2438
25.4045 -16.6036 -11.2435
25.3935 -16.5788 -11.2751
25.3816 -16.5419 -11.3352
25.3157 -16.5502 -11.3571
25.2711 -16.562 -11.3802
25.2318 -16.595 -11.3809
25.1886 -16.6117 -11.3908
25.4865 -17.0805 -9.85483
25.5808 -17.0338 -9.8916
25.6439 -16.9726 -9.92481
25.7116 -16.9461 -9.95389
25.7617 -16.9174 -9.98324
25.7924 -16.8803 -10.0209
25.3793 -17.1308 -9.81487
25.0555 -17.3272 -9.85118
25.0884 -17.3126 -9.85778
25.1111 -17.2911 -9.82334
25.2667 -17.1878 -9.77974
25.1512 -17.2485 -9.7566
25.8188 -16.8506 -10.0644
25.8278 -16.8438 -10.2115
25.846 -16.8275 -10.112
25.7834 -16.8398 -10.3068
25.7522 -16.843 -10.4065
25.2031 -16.5672 -11.4208
25.2148 -16.5272 -11.4316
25.2458 -16.4885 -11.4438
25.2943 -16.3479 -11.5349
25.3248 -16.4195 -11.4497
25.2953 -16.2694 -11.6242
25.32 -16.1849 -11.6932
25.3495 -16.1161 -11.7428
25.4099 -16.0835 -11.713
25.502 -15.989 -11.6986
25.4684 -16.0749 -11.6619
25.5236 -15.9214 -11.7329
25.5159 -15.856 -11.816
25.4911 -15.7407 -11.9522
25.4551 -15.6236 -12.0903
25.4229 -15.5402 -12.174
25.4327 -15.4628 -12.2215
25.4514 -15.3881 -12.2694
25.4419 -15.2879 -12.3457
25.4504 -15.1374 -12.4579
25.3852 -15.1047 -12.5625
25.3258 -15.0615 -12.6633
25.2597 -15.0087 -12.7602
25.1999 -14.9701 -12.8573
25.1343 -15.0569 -12.8646
25.0389 -15.1494 -12.8632
24.9193 -14.9922 -13.0721
24.85 -14.9961 -13.1515
24.8001 -14.9915 -13.1646
24.8115 -14.9313 -13.1898
24.6254 -14.9116 -13.3524
24.4778 -14.9682 -13.3927
24.8319 -14.8309 -13.2478
24.7479 -14.8529 -13.3024
24.7007 -14.881 -13.3303
24.343 -14.9993 -13.4672
24.2393 -15.0123 -13.5276
24.1179 -15.0746 -13.5611
24.0047 -15.1186 -13.5795
23.9542 -15.1029 -13.6254
23.8773 -15.0985 -13.6961
23.9258 -15.0854 -13.6613
23.8017 -15.0871 -13.7302
23.7112 -15.1046 -13.7619
24.977 -15.0649 -12.9681
23.68 -13.588 -5.89541
23.725 -13.5702 -5.92166
23.7629 -13.485 -5.93976
23.853 -13.5319 -5.96771
23.8983 -13.7017 -5.95553
23.9478 -13.8651 -5.96186
24.0105 -14.0114 -5.96547
23.9668 -14.0969 -5.94282
23.9323 -14.1677 -5.91375
24.0055 -14.2664 -5.94047
24.0977 -14.3577 -5.96643
24.0742 -14.4145 -5.9652
24.2196 -14.3246 -6.02913
24.125 -14.2995 -5.97741
24.297 -14.3298 -6.06837
24.3724 -14.307 -6.08945
24.4599 -14.371 -6.128
24.5367 -14.4301 -6.15942
24.6116 -14.3981 -6.20217
24.6873 -14.3305 -6.23882
24.7765 -14.3443 -6.28732
24.8182 -14.4368 -6.29499
24.8013 -14.526 -6.28726
24.8052 -14.5962 -6.32139
24.8475 -14.6583 -6.34502
24.8147 -14.7056 -6.32005
24.7755 -14.7432 -6.29628
22.8714 -11.8505 -6.23876
22.6737 -11.6244 -6.27914
22.7873 -11.6527 -6.26216
22.8973 -11.6846 -6.25828
22.9276 -11.7726 -6.245
22.5955 -11.4531 -6.32518
22.6435 -11.5315 -6.29877
23.6117 -12.7385 -6.03247
23.6124 -12.8431 -6.00748
23.6417 -12.9282 -6.00591
23.6312 -13.0139 -5.97224
23.6291 -13.1026 -5.93726
23.632 -13.21 -5.91255
23.6676 -12.4276 -6.12651
23.6551 -12.6002 -6.08591
23.6206 -13.3141 -5.89992
23.6475 -13.413 -5.9188
23.6642 -13.505 -5.90642
23.5406 -12.0216 -6.19036
23.5811 -12.0623 -6.1965
23.6345 -12.0806 -6.19676
23.7064 -12.0786 -6.21843
23.6888 -12.2438 -6.18221
22.9639 -11.8471 -6.21943
23.0486 -11.8609 -6.20711
23.1097 -11.7974 -6.22874
23.2358 -11.7777 -6.23762
23.2975 -11.8255 -6.22923
23.3549 -11.8655 -6.20815
23.4109 -11.8959 -6.20609
23.4713 -11.9023 -6.22123
23.5047 -11.9666 -6.19482
23.1673 -11.7367 -6.24514
24.8536 -14.764 -6.35565
25.0974 -14.9201 -6.58155
