23.4835 26.3662 -12.4453
22.5897 27.0575 -12.174
22.3008 27.1086 -12.2544
22.4477 27.0888 -12.2221
25.5356 27.693 -16.0605
25.595 27.6794 -16.0641
25.727 27.7156 -16.0967
25.6614 27.6518 -16.0373
25.7843 27.7606 -16.1478
25.8345 27.8078 -16.1855
25.8966 27.854 -16.2152
25.9869 27.8905 -16.2126
26.0326 27.9735 -16.2869
26.011 28.0638 -16.3687
25.9473 28.1077 -16.448
25.9024 28.1786 -16.5453
25.8815 28.2621 -16.6285
25.8757 28.3361 -16.7142
25.9288 28.3976 -16.7967
25.986 28.4177 -16.7906
26.1336 28.4853 -16.8757
26.1796 28.5578 -16.9565
26.0591 28.4267 -16.7903
25.1708 27.3245 -15.5901
25.2336 27.3186 -15.5917
25.3719 27.4081 -15.7121
25.2974 27.3085 -15.5898
25.4574 27.4854 -15.7934
25.5075 27.578 -15.9105
25.5444 27.6414 -16.0011
26.2622 28.6948 -17.0419
26.174 28.774 -17.1397
26.095 28.8406 -17.2353
26.1305 28.9098 -17.2809
26.2766 28.6059 -16.9528
26.1765 28.9937 -17.3221
26.0962 29.0891 -17.418
25.997 29.2036 -17.5312
25.922 29.3304 -17.6537
25.8125 29.43 -17.7684
25.8326 29.5145 -17.835
25.1966 29.8046 -18.2596
25.2625 29.8194 -18.2427
25.162 29.8437 -18.2841
25.1047 29.8924 -18.3107
25.8188 29.6072 -17.9257
25.7267 29.6849 -18.0206
25.6766 29.7347 -18.0741
25.5776 29.775 -18.1248
25.413 29.8362 -18.2053
25.0399 29.941 -18.3424
25.0895 29.972 -18.3497
25.1496 30.0081 -18.3427
25.2553 30.3574 -18.2719
25.2129 30.4443 -18.2557
25.0723 30.4918 -18.2777
25.3351 30.293 -18.2545
25.2184 30.0435 -18.3232
25.2876 30.0774 -18.2995
25.3469 30.1135 -18.286
25.3973 30.1564 -18.2709
25.4371 30.2486 -18.2304
25.4562 30.1917 -18.2396
24.9573 30.6864 -18.2557
24.8726 30.7727 -18.2786
24.7567 30.764 -18.3128
24.6575 30.7607 -18.3351
25.0938 30.6309 -18.2448
24.5731 30.8069 -18.3467
24.4551 30.8434 -18.369
24.3781 30.9107 -18.3606
24.3394 30.9639 -18.3645
24.2633 30.9677 -18.3891
24.1526 30.9654 -18.4022
24.0195 30.9653 -18.4243
23.8456 30.9855 -18.4421
23.6657 30.8722 -18.4944
23.5487 30.8213 -18.5293
23.4497 30.7429 -18.5717
23.3134 30.669 -18.6144
23.1782 30.682 -18.635
23.0892 30.7012 -18.6275
23.0268 30.7862 -18.5796
22.9556 30.9371 -18.5179
22.8404 30.8819 -18.5605
22.7298 30.803 -18.5886
22.6377 30.7477 -18.6019
22.5539 30.7275 -18.593
22.4594 30.7906 -18.5677
22.1032 30.8477 -18.5304
22.2324 30.8584 -18.54
22.3601 30.8623 -18.5468
22.1133 30.9269 -18.5057
22.1292 31.0296 -18.4846
21.9993 31.0824 -18.4486
21.929 31.1476 -18.4148
21.8387 31.213 -18.3615
21.5924 31.2681 -18.3145
21.6911 31.3739 -18.2996
21.5207 31.2225 -18.3252
21.4165 31.2843 -18.3021
21.2643 31.2769 -18.2609
21.304 31.3585 -18.2434
21.2205 31.1983 -18.2665
21.1156 31.2644 -18.2191
21.0364 31.3117 -18.1788
20.967 31.2886 -18.1601
20.8713 31.2656 -18.1254
20.2997 31.041 -17.9127
20.2966 30.8911 -17.9255
20.7557 31.2575 -18.082
20.6387 31.2705 -18.0161
20.5207 31.3105 -17.9632
20.3573 31.267 -17.9049
20.2954 31.1957 -17.8881
20.4217 31.3667 -17.9086
20.2294 30.9917 -17.8826
20.1742 31.0972 -17.8324
20.113 31.0657 -17.8043
20.0667 31.0517 -17.7684
19.1283 29.9314 -16.7942
19.9819 31.2563 -17.6616
19.911 31.2158 -17.6282
20.0245 31.1353 -17.7232
19.8344 31.1766 -17.5603
19.7634 31.0714 -17.5173
19.7164 30.9991 -17.4899
19.6643 30.9954 -17.4365
19.6034 30.9825 -17.3702
19.5306 30.9627 -17.3169
19.4755 30.9311 -17.2495
19.2674 30.5403 -17.0327
19.2389 30.4163 -17.0054
19.4206 30.8977 -17.1821
19.3607 30.8735 -17.1218
19.3229 30.7367 -17.0935
19.2922 30.6462 -17.0481
19.2092 30.294 -16.9784
19.191 30.1619 -16.9489
19.1556 30.062 -16.8752
19.0681 29.8332 -16.6672
19.0151 29.7264 -16.5761
18.9647 29.7555 -16.4751
18.9185 29.7551 -16.3742
18.8718 29.7289 -16.2731
18.8269 29.6866 -16.1738
18.7885 29.6466 -16.0743
18.7549 29.6181 -15.9715
18.7328 29.4966 -15.9348
18.7334 29.4031 -15.895
18.7148 29.471 -15.8369
18.6128 29.0341 -15.3519
18.6126 29.1535 -15.4146
18.5968 29.2777 -15.4685
18.6066 29.4286 -15.5104
18.6965 29.5513 -15.7846
18.663 29.5839 -15.6999
18.6055 29.6403 -15.5724
21.0575 27.3141 -12.4601
21.1796 27.2893 -12.4463
21.3246 27.2634 -12.4251
21.4496 27.225 -12.4424
21.5457 27.19 -12.444
18.5785 29.07 -15.2455
18.5369 29.1484 -15.1248
18.5052 29.1591 -15.0025
18.4802 29.1823 -14.9018
18.4526 29.2251 -14.8029
18.4254 29.2947 -14.6822
18.454 29.1262 -14.6728
18.4785 28.9749 -14.6644
18.4856 28.972 -14.5807
18.47 28.9558 -14.4717
18.4783 28.9725 -14.3519
18.5607 28.6786 -14.1066
18.5698 28.5841 -14.1415
18.5233 28.8537 -14.1582
18.5383 28.8082 -14.0641
18.4923 28.9234 -14.2249
18.4786 29.0047 -14.2551
18.5113 28.8861 -14.1987
18.5837 28.6059 -14.0333
18.601 28.6341 -13.8983
18.6871 28.5712 -13.571
18.7405 28.4647 -13.5073
18.6255 28.6619 -13.765
18.6389 28.6741 -13.6422
18.7185 28.5597 -13.4741
18.6942 28.6611 -13.453
18.7215 28.638 -13.3708
19.137 27.8886 -13.0992
19.1389 27.8416 -13.1355
19.1859 27.8227 -13.088
19.3651 27.6804 -13.0336
21.0322 27.3631 -12.4162
25.8149 26.4863 -14.3869
25.7116 26.505 -14.4355
25.7134 26.685 -14.7007
25.7558 26.7558 -14.7982
25.8094 26.8329 -14.8829
25.7376 26.9128 -14.9955
25.6222 26.9609 -15.0739
25.5123 26.9493 -15.0881
25.4032 26.9629 -15.1368
25.3188 27.0031 -15.2093
25.7899 26.6288 -14.5995
25.8192 26.5581 -14.495
24.2138 26.0587 -12.6232
24.2833 26.0457 -12.6374
24.3517 26.0263 -12.6362
24.4154 26.0294 -12.6619
24.4689 26.0974 -12.5775
24.8752 26.4271 -12.3058
24.942 26.3971 -12.3673
25.0298 26.4096 -12.39
24.741 26.4432 -12.195
24.8261 26.4841 -12.2007
24.6546 26.4205 -12.1834
25.1307 26.4458 -12.4179
25.2885 26.3505 -12.5946
25.3383 26.2753 -12.7403
25.4001 26.2122 -12.8654
25.2438 26.4485 -12.4413
24.5189 26.1269 -12.5258
24.5103 26.2477 -12.3732
24.4813 26.1684 -12.4662
24.5397 26.3303 -12.2918
24.5691 26.4082 -12.1956
25.4721 26.1529 -12.9746
25.5433 26.1392 -13.0788
25.5196 26.0648 -13.16
25.522 26.0033 -13.2207
25.6066 26.0413 -13.271
25.6922 26.1092 -13.3163
25.7163 26.1037 -13.3611
25.6978 26.0639 -13.4002
25.6004 25.9938 -13.4208
25.5146 25.9272 -13.4517
25.5224 25.9083 -13.505
25.532 25.9289 -13.5633
25.5728 25.9513 -13.6282
25.6184 25.9835 -13.6961
25.6494 26.025 -13.7581
25.685 26.0395 -13.8119
25.7116 26.0784 -13.8577
24.1877 26.1634 -12.5189
23.5915 26.3544 -12.4305
23.6896 26.3365 -12.4155
23.7883 26.3305 -12.4018
23.8858 26.3285 -12.3832
23.9758 26.3034 -12.3211
24.0242 26.2529 -12.383
24.0847 26.2472 -12.417
24.1614 26.2523 -12.4141
25.7895 26.1328 -13.8872
25.8698 26.1779 -13.908
25.923 26.2099 -13.9546
25.9725 26.2436 -14.0039
26.0165 26.289 -14.0466
26.0732 26.331 -14.1003
26.1526 26.3698 -14.1542
26.1609 26.4015 -14.2042
26.0736 26.4057 -14.2052
26.0205 26.4232 -14.2486
25.9177 26.4822 -14.3363
26.0032 26.4692 -14.3106
25.338 27.1243 -15.3573
25.3006 27.2016 -15.4602
23.0765 26.7405 -12.3004
22.9455 26.9681 -12.0734
22.9972 26.8814 -12.1437
23.0764 26.8136 -12.203
22.7864 27.1519 -11.9784
22.9318 27.1337 -11.9547
22.9667 27.0606 -11.9943
22.6259 27.1212 -12.0714
23.2807 26.6487 -12.2441
23.3227 26.576 -12.3588
23.172 26.7403 -12.2397
23.4011 26.5693 -12.2599
23.5012 26.5048 -12.2748
23.5385 26.4264 -12.3532
22.4831 27.1459 -12.1524
25.5879 27.6065 -15.9697
25.7979 27.6874 -16.0595
25.7354 27.6197 -16.0045
25.6538 27.5583 -15.9126
25.8473 27.746 -16.1042
25.8877 27.7916 -16.1415
25.9587 27.8048 -16.1392
26.0606 27.8275 -16.1301
26.0953 27.9102 -16.2048
26.098 28.0414 -16.3355
26.1213 27.9817 -16.2659
26.0842 28.1069 -16.3952
26.0399 28.1511 -16.4481
26.0058 28.2196 -16.5425
25.9507 28.279 -16.626
25.9309 28.344 -16.7071
25.9972 28.3663 -16.7051
26.2823 28.4957 -16.8516
26.1485 28.4346 -16.7709
26.0669 28.3853 -16.7117
25.3537 27.3048 -15.5858
25.4159 27.386 -15.6776
25.4957 27.4487 -15.7351
25.5486 27.5353 -15.8505
26.3976 28.705 -17.008
26.2994 28.7709 -17.086
26.3825 28.6384 -16.959
26.2143 28.8329 -17.1869
26.2574 28.914 -17.2204
26.3979 28.5736 -16.8906
26.313 29.0025 -17.2697
26.2335 29.0838 -17.3691
26.1658 29.1804 -17.4705
26.096 29.3015 -17.5845
25.9848 29.4205 -17.7138
26.0001 29.5267 -17.7958
25.2256 29.8717 -18.2748
25.1518 29.9259 -18.3103
25.9876 29.6158 -17.8789
25.8606 29.6734 -17.9651
25.778 29.7295 -18.0241
25.7128 29.7743 -18.087
25.619 29.8296 -18.1384
25.545 29.8867 -18.1814
25.4127 29.9118 -18.2281
25.2819 29.9118 -18.2624
25.2039 29.9609 -18.3062
25.2641 29.9947 -18.3014
25.3618 30.3501 -18.2326
25.3373 30.4146 -18.2217
25.326 30.5051 -18.2075
25.2117 30.5522 -18.2247
25.4445 30.3124 -18.2155
25.3305 30.0297 -18.286
25.3966 30.0665 -18.2696
25.456 30.1061 -18.2559
25.5051 30.1438 -18.235
25.5387 30.2714 -18.1946
25.5327 30.2152 -18.2028
25.5415 30.1744 -18.212
25.0581 30.7447 -18.2179
24.9743 30.7958 -18.242
24.909 30.881 -18.2564
24.7994 30.8758 -18.2819
24.682 30.8569 -18.3148
25.2384 30.6623 -18.1879
25.1647 30.7393 -18.1852
24.5807 30.9197 -18.3326
24.4836 30.9572 -18.3431
24.4258 30.9976 -18.3395
24.3786 31.0453 -18.3442
24.2859 31.0774 -18.3499
24.1532 31.0936 -18.3577
24.0163 31.1131 -18.3742
23.9152 31.1695 -18.3715
23.7892 31.1707 -18.3825
23.6858 31.0392 -18.4275
23.5703 30.9416 -18.4794
23.4575 30.8673 -18.5199
23.3377 30.811 -18.5621
23.2169 30.7811 -18.585
23.1135 30.7848 -18.5903
23.0683 30.895 -18.5293
23.0655 31.043 -18.4822
22.9673 31.1425 -18.4505
22.8347 31.0817 -18.4894
22.7137 31.0096 -18.5137
22.6 30.953 -18.5318
22.6007 30.8383 -18.5582
22.5489 30.7992 -18.572
22.4718 30.8582 -18.5536
22.2533 30.9422 -18.5221
22.3913 30.9399 -18.5205
22.2901 31.0385 -18.4923
22.1901 31.1287 -18.4586
22.0811 31.1199 -18.4475
22.0049 31.1562 -18.4213
21.9403 31.2364 -18.3782
21.8574 31.35 -18.318
21.5198 31.4459 -18.2609
21.4598 31.3653 -18.2801
21.7887 31.4913 -18.2676
21.6667 31.5769 -18.2374
21.5602 31.5439 -18.2279
21.3394 31.4508 -18.2311
21.1948 31.4305 -18.1958
21.1579 31.3449 -18.2106
21.2268 31.523 -18.1828
21.0638 31.392 -18.1711
20.9807 31.4072 -18.1388
20.8939 31.402 -18.1099
20.7991 31.3985 -18.0644
20.237 31.141 -17.8562
20.6941 31.4108 -18.0102
20.5887 31.4432 -17.9527
20.4873 31.4908 -17.904
20.3446 31.4247 -17.858
20.2876 31.3462 -17.8589
20.2342 31.2919 -17.8373
20.3999 31.5398 -17.8586
20.1773 31.2466 -17.8154
20.1259 31.2081 -17.7836
20.072 31.1779 -17.7563
19.0462 29.9982 -16.6611
19.0933 30.0959 -16.7594
19.9934 31.428 -17.6486
19.9375 31.3955 -17.6119
20.0376 31.2944 -17.6947
19.8782 31.3621 -17.5622
19.8124 31.3552 -17.503
19.7563 31.2315 -17.4724
19.694 31.119 -17.4488
19.628 31.124 -17.3749
19.561 31.1076 -17.3132
19.5022 31.088 -17.2543
19.4532 31.0658 -17.1862
19.2485 30.6511 -16.9786
19.2086 30.5356 -16.9459
19.1796 30.4146 -16.9114
19.3932 31.0334 -17.1283
19.3462 30.9926 -17.0669
19.3107 30.861 -17.0592
19.2803 30.7506 -17.0243
19.152 30.298 -16.875
19.1287 30.1912 -16.8282
19.0028 29.8843 -16.5535
18.9418 29.9019 -16.4385
18.8863 29.8898 -16.3201
18.8358 29.8442 -16.2092
18.7977 29.7823 -16.1114
18.7672 29.7457 -16.0167
18.7268 29.7268 -15.9131
18.718 29.5882 -15.8713
18.5866 29.1757 -15.3177
18.574 29.2784 -15.3736
18.5623 29.3974 -15.4128
18.5653 29.5425 -15.4365
18.7022 29.6806 -15.7958
18.6492 29.7556 -15.7098
18.625 29.8409 -15.6328
18.5834 29.8367 -15.5417
18.559 29.7079 -15.4416
21.1402 27.3444 -12.4056
21.2581 27.3362 -12.4028
18.5487 29.2335 -15.2281
18.5115 29.3489 -15.1427
18.4875 29.3201 -15.0376
18.4742 29.3214 -14.9335
18.4477 29.3415 -14.8405
18.4216 29.3948 -14.7442
18.3936 29.4858 -14.6352
18.3844 29.4331 -14.5622
18.4119 29.285 -14.579
18.4594 29.1345 -14.5808
18.4428 29.1341 -14.4907
18.4278 29.1676 -14.3983
18.4445 29.1049 -14.3521
18.4691 29.1086 -14.274
18.5657 28.7184 -13.979
18.4969 28.9374 -14.1558
18.5163 28.9213 -14.0814
18.5321 28.9152 -13.9966
18.5436 28.8379 -13.9308
18.4695 29.0208 -14.1655
18.4609 29.1225 -14.1741
18.5871 28.7561 -13.8468
18.6664 28.6739 -13.5406
18.6107 28.7794 -13.7199
18.634 28.7786 -13.6102
18.6446 28.7728 -13.5225
18.6632 28.7691 -13.4476
25.9266 26.5359 -14.4477
25.8892 26.7012 -14.6771
25.9232 26.7866 -14.7725
25.9631 26.8528 -14.8399
25.8779 26.9013 -14.9337
25.7109 26.998 -15.1014
25.8273 26.9771 -15.0389
25.6402 27.0251 -15.1656
25.568 27.0405 -15.1786
25.4811 27.0475 -15.2232
25.3995 27.0781 -15.278
25.9225 26.6206 -14.5504
24.2632 26.142 -12.5195
24.3311 26.1255 -12.5142
24.408 26.1347 -12.5254
24.9061 26.5093 -12.2053
24.9207 26.4595 -12.2854
24.9725 26.4882 -12.2641
25.074 26.5624 -12.2359
24.699 26.5074 -12.0973
24.7746 26.5483 -12.1039
24.8761 26.6034 -12.0819
24.6128 26.4867 -12.0955
25.1948 26.5653 -12.2895
25.3384 26.457 -12.474
25.3757 26.3871 -12.6215
25.4311 26.3282 -12.7474
25.5266 26.2934 -12.8585
25.2952 26.5817 -12.3529
24.4876 26.2998 -12.3126
24.448 26.2271 -12.3899
24.4968 26.3646 -12.2246
24.5194 26.4637 -12.1107
25.5949 26.2363 -12.9839
25.6684 26.2139 -13.075
25.6276 26.1512 -13.1522
25.6154 26.0878 -13.2113
25.7039 26.1347 -13.2622
25.7988 26.1733 -13.3004
25.7872 26.1478 -13.3407
25.7822 26.1387 -13.3655
25.7855 26.1307 -13.388
25.7984 26.116 -13.4296
25.7097 26.0483 -13.4501
25.6205 25.9836 -13.4848
25.6119 25.9765 -13.5446
25.6637 26.0118 -13.6125
25.7107 26.0335 -13.6862
25.759 26.0849 -13.7633
25.755 26.0893 -13.8148
25.7546 26.0989 -13.8484
24.2457 26.2515 -12.4068
23.6469 26.4251 -12.3585
23.7431 26.4053 -12.3344
23.8388 26.3874 -12.2995
23.9387 26.3838 -12.2663
24.0419 26.3781 -12.2315
24.0604 26.3033 -12.2972
24.0706 26.2755 -12.3551
24.1225 26.2884 -12.3231
24.2183 26.3337 -12.2717
25.8219 26.1388 -13.8651
25.8907 26.1767 -13.8821
25.9479 26.2208 -13.9178
26.0304 26.2684 -13.9672
26.0789 26.2914 -14.0249
26.1213 26.3257 -14.0705
26.1743 26.3589 -14.1188
26.2521 26.4046 -14.2083
26.2307 26.3765 -14.1644
26.2944 26.4422 -14.2873
26.1784 26.4436 -14.26
26.1042 26.4471 -14.2545
26.0876 26.4734 -14.3026
26.0136 26.5216 -14.3972
26.0736 26.5121 -14.3579
25.4092 27.1807 -15.4108
25.365 27.2344 -15.4831
23.0403 27.0036 -11.9909
23.054 26.9215 -12.0478
23.1059 26.8616 -12.1159
23.1625 26.8046 -12.1649
22.645 27.2031 -12.0051
23.0647 27.1697 -11.842
23.0426 27.1092 -11.896
23.0563 27.0612 -11.9363
23.2576 26.7462 -12.1624
23.3849 26.6605 -12.1523
23.4806 26.5586 -12.1779
23.5608 26.5185 -12.2102
23.5999 26.4826 -12.2813
25.8208 27.6141 -15.9677
25.8763 27.6802 -16.023
25.7553 27.534 -15.9049
25.6867 27.4809 -15.7986
25.5894 27.4791 -15.7815
25.9235 27.7401 -16.0765
26.0183 27.756 -16.0537
26.1361 27.7782 -16.0438
26.1801 27.8685 -16.1219
26.2021 27.9593 -16.2087
26.1935 28.0381 -16.2963
26.1655 28.1077 -16.3732
26.1303 28.166 -16.4391
26.1065 28.2206 -16.5053
26.114 28.2968 -16.5799
26.0365 28.3171 -16.6388
26.2543 28.4428 -16.7053
26.4007 28.4728 -16.7358
26.4577 28.5202 -16.8107
26.1369 28.3709 -16.6692
25.3961 27.3106 -15.5825
25.4539 27.3631 -15.628
25.531 27.4003 -15.6762
26.4307 28.773 -17.0409
26.4891 28.6661 -16.9299
26.5175 28.7216 -16.9638
26.3446 28.8348 -17.1318
26.4698 28.6218 -16.8935
26.3981 28.9176 -17.1728
26.5184 28.5845 -16.8359
26.4695 29.0213 -17.2359
26.3649 29.0938 -17.3455
26.2828 29.1681 -17.4146
26.2605 29.2617 -17.5071
26.211 29.4152 -17.6466
26.1516 29.5567 -17.7792
26.1118 29.6426 -17.8571
25.9787 29.6851 -17.9259
25.8809 29.7184 -17.9842
25.8387 29.763 -18.0261
25.7867 29.823 -18.0738
25.6922 29.8777 -18.1312
25.6352 29.927 -18.1629
25.5144 29.9347 -18.2107
25.4194 29.9502 -18.2403
25.324 29.9487 -18.2736
25.3785 29.9807 -18.2748
25.4503 30.3833 -18.195
25.4406 30.4676 -18.1761
25.4275 30.5558 -18.1535
25.3327 30.6036 -18.1801
25.5548 30.3389 -18.1751
25.4443 30.0177 -18.2588
25.512 30.0587 -18.2424
25.571 30.1028 -18.22
25.6079 30.1467 -18.203
25.6474 30.2907 -18.1634
25.624 30.2343 -18.178
25.6153 30.1884 -18.1877
25.1155 30.8264 -18.1809
25.0437 30.8298 -18.2131
24.9923 30.8932 -18.2159
24.9492 30.9812 -18.2443
24.8548 30.983 -18.2651
24.7135 31.0036 -18.2912
25.2726 30.761 -18.1418
25.3497 30.6981 -18.1355
25.2107 30.8375 -18.1498
24.5645 31.0174 -18.3147
24.4923 31.0151 -18.3266
24.4911 31.0647 -18.3133
24.4663 31.1753 -18.2897
24.2976 31.2103 -18.3029
24.1433 31.2499 -18.3167
24.0061 31.2375 -18.3352
23.9398 31.2464 -18.3375
23.8721 31.2745 -18.3406
23.7423 31.3458 -18.3267
23.6496 31.207 -18.382
23.5635 31.0887 -18.4337
23.4685 30.9986 -18.4756
23.3582 30.9369 -18.5084
23.2424 30.8945 -18.5335
23.1507 30.8631 -18.546
23.1558 30.9711 -18.5085
23.1903 31.0995 -18.4595
23.1129 31.1979 -18.4255
23.0274 31.3201 -18.3992
22.8659 31.2794 -18.4136
22.701 31.2387 -18.4326
22.576 31.1239 -18.4617
22.4493 31.045 -18.4867
22.5123 30.9123 -18.54
22.5385 30.8493 -18.5568
22.3174 31.1622 -18.4453
22.2085 31.2474 -18.4041
22.1124 31.196 -18.4209
22.0575 31.1668 -18.4202
22.0344 31.2304 -18.3891
21.9903 31.3636 -18.3342
21.9056 31.4725 -18.2801
21.4615 31.6014 -18.2001
21.3789 31.5621 -18.2054
21.8565 31.5686 -18.2552
21.775 31.6369 -18.2289
21.67 31.7525 -18.1774
21.5596 31.6701 -18.182
21.5042 31.6295 -18.189
21.2535 31.6256 -18.1693
21.1227 31.5824 -18.148
21.0952 31.4849 -18.1564
21.1484 31.6789 -18.1292
21.0068 31.5155 -18.12
20.9214 31.5285 -18.0895
20.8336 31.5376 -18.0553
20.7414 31.5544 -18.0075
20.6489 31.5845 -17.9495
20.5508 31.6292 -17.9068
20.4613 31.6742 -17.86
20.3271 31.5735 -17.8179
20.293 31.4695 -17.8179
20.2448 31.4345 -17.802
20.1882 31.3927 -17.7848
20.3777 31.7056 -17.8194
20.1334 31.3546 -17.7633
20.0866 31.3234 -17.7295
18.9789 30.057 -16.5315
19.0361 30.1479 -16.6552
19.0819 30.2068 -16.7369
20.0457 31.4501 -17.6822
20.0056 31.5872 -17.6412
19.9528 31.5621 -17.601
19.9043 31.5232 -17.5556
19.8517 31.4883 -17.5091
19.8004 31.4699 -17.4643
19.7572 31.3855 -17.4224
19.6743 31.2772 -17.3833
19.5817 31.246 -17.3245
19.5266 31.2245 -17.2602
19.4772 31.215 -17.1992
19.4196 31.2162 -17.1248
19.2408 30.7936 -16.9449
19.1889 30.6959 -16.8786
19.1575 30.5455 -16.8527
19.118 30.4336 -16.8029
19.3703 31.1374 -17.0579
19.3286 31.0784 -17.0137
19.2957 30.9709 -17.0091
19.2758 30.8599 -16.9969
19.0956 30.3019 -16.7713
18.9122 30.042 -16.3931
18.8464 30.0481 -16.2492
18.7996 29.9255 -16.1349
18.7785 29.8533 -16.0581
18.7449 29.8597 -15.9766
18.7005 29.8801 -15.8437
18.5552 29.2895 -15.2973
18.5425 29.3871 -15.3269
18.5339 29.484 -15.3595
18.5328 29.6044 -15.3488
18.6478 29.9112 -15.7232
18.6097 29.9531 -15.6249
18.6251 29.933 -15.6686
18.5788 29.9957 -15.5597
18.5515 29.877 -15.4432
18.5191 29.7542 -15.342
18.5239 29.3802 -15.2412
18.498 29.5294 -15.1704
18.4793 29.4889 -15.0574
18.4583 29.4698 -14.9572
18.4469 29.4666 -14.8633
18.4222 29.4683 -14.7899
18.3925 29.5488 -14.7086
18.3716 29.6547 -14.5897
18.3678 29.5704 -14.5214
18.3636 29.5182 -14.4693
18.3809 29.416 -14.476
18.4174 29.2841 -14.4868
18.4077 29.2837 -14.401
18.4049 29.2875 -14.3347
18.414 29.2323 -14.3073
18.4433 29.1961 -14.2733
18.4363 29.2179 -14.1896
18.4846 29.0132 -14.0844
18.5135 28.9924 -14.0133
18.5171 28.9716 -13.9652
18.5286 28.9452 -13.9112
18.5637 28.8906 -13.803
18.4576 29.1125 -14.0763
18.4396 29.2372 -14.0628
18.5931 28.8799 -13.67
18.5975 28.8493 -13.5819
18.6043 28.8702 -13.5225
18.6135 28.8792 -13.4563
26.0352 26.5934 -14.4946
26.047 26.7473 -14.6933
26.0419 26.6742 -14.5972
26.0703 26.8074 -14.7748
26.0937 26.8668 -14.8365
26.0038 26.9064 -14.8883
25.9456 26.9462 -14.9649
25.7733 27.0485 -15.1428
25.6986 27.0694 -15.1967
25.9257 27.0004 -15.0354
25.8558 27.0415 -15.1104
25.6303 27.0999 -15.2511
25.5532 27.1246 -15.2994
25.4741 27.1455 -15.3503
24.3151 26.2388 -12.4063
24.3814 26.2329 -12.4072
24.9801 26.5918 -12.1232
25.0812 26.7015 -12.036
25.1799 26.6772 -12.1185
24.6682 26.5705 -12.0167
24.7395 26.5785 -12.0204
24.8061 26.6159 -12.0051
24.8841 26.6937 -11.9437
24.9826 26.7063 -11.9696
24.59 26.5476 -12.0052
25.275 26.6679 -12.1949
25.3968 26.5641 -12.3724
25.4315 26.4704 -12.4934
25.4572 26.4314 -12.632
25.5274 26.3952 -12.7166
25.6344 26.4237 -12.7747
25.6707 26.3582 -12.904
25.3659 26.665 -12.2573
24.4374 26.3058 -12.2966
24.44 26.3745 -12.1774
24.5071 26.5289 -11.9974
24.4487 26.4614 -12.0868
25.728 26.3114 -13.0092
25.7849 26.2978 -13.0958
25.7501 26.226 -13.1451
25.7249 26.172 -13.2037
25.8236 26.1998 -13.2511
25.9087 26.2385 -13.2961
25.8847 26.2103 -13.3398
25.8512 26.17 -13.3703
25.8797 26.1825 -13.4124
25.8921 26.1828 -13.4567
25.8112 26.1183 -13.4754
25.7297 26.0614 -13.4984
25.6793 26.0259 -13.5304
25.6952 26.0347 -13.5708
25.8017 26.0874 -13.6739
25.7754 26.0821 -13.6205
25.8435 26.1245 -13.7407
25.8923 26.1771 -13.8085
25.8474 26.1434 -13.8381
24.3058 26.3167 -12.2739
23.6989 26.4787 -12.2699
23.7992 26.465 -12.2389
23.9044 26.4577 -12.2073
24.0173 26.4631 -12.1754
24.1376 26.4675 -12.143
24.1368 26.371 -12.2311
24.2398 26.453 -12.1444
24.3135 26.4119 -12.1591
25.9383 26.2052 -13.8707
26.0225 26.2674 -13.9099
26.1283 26.3105 -13.949
26.1451 26.3137 -14.0059
26.1706 26.3401 -14.0547
26.2148 26.3506 -14.099
26.262 26.3785 -14.1434
26.3125 26.4038 -14.1963
26.3696 26.4309 -14.2637
26.4336 26.4858 -14.3404
26.3873 26.5056 -14.3749
26.2777 26.49 -14.3389
26.1761 26.4868 -14.3122
26.1573 26.5323 -14.3674
26.1132 26.5692 -14.4306
25.4769 27.2408 -15.4655
25.4284 27.2729 -15.5256
23.123 27.026 -11.9294
23.1301 26.9614 -11.9813
23.1634 26.8916 -12.0368
23.2123 26.8216 -12.0946
23.2126 27.1772 -11.7426
23.1528 27.1306 -11.8124
23.1305 27.0809 -11.8729
23.326 26.7647 -12.0769
23.4463 26.7213 -12.0644
23.5066 26.6334 -12.1117
23.5763 26.5717 -12.1522
23.6429 26.5315 -12.2043
25.8523 27.548 -15.8743
25.9132 27.6196 -15.9354
25.9692 27.688 -15.9921
25.7877 27.4708 -15.7996
25.6206 27.4266 -15.6926
25.7135 27.4126 -15.6845
26.0833 27.6982 -15.9769
26.2101 27.7302 -15.9602
26.2665 27.8225 -16.0339
26.3235 27.9324 -16.1341
26.3 28.0362 -16.2443
26.2691 28.1163 -16.3346
26.2264 28.1788 -16.412
26.1834 28.2248 -16.4671
26.2026 28.281 -16.5209
26.2487 28.365 -16.596
26.4975 28.4628 -16.6505
26.5378 28.4946 -16.7271
26.5915 28.5343 -16.7821
25.4963 27.3102 -15.5823
25.567 27.3578 -15.6074
26.5609 28.7692 -17.008
26.478 28.8377 -17.0817
26.568 28.6296 -16.8673
26.6036 28.6746 -16.902
26.6371 28.7226 -16.9355
26.5374 28.9146 -17.1264
26.6416 28.5789 -16.8169
26.6086 28.9938 -17.1674
26.5853 29.0979 -17.2606
26.4802 29.1439 -17.3374
26.3791 29.2089 -17.4115
26.388 29.3149 -17.4983
26.4307 29.419 -17.5705
26.3245 29.5218 -17.6914
26.2546 29.6108 -17.7849
26.2061 29.6779 -17.8466
26.0833 29.7041 -17.909
25.961 29.7359 -17.9701
25.931 29.787 -18.0087
25.9174 29.8358 -18.0398
25.8198 29.8773 -18.0828
25.7583 29.9197 -18.1199
25.7259 29.9605 -18.1556
25.6005 29.9679 -18.1992
25.4851 29.9749 -18.2349
25.5768 30.4292 -18.1387
25.5379 30.5279 -18.1255
25.4312 30.6417 -18.1168
25.5069 30.599 -18.1054
25.6785 30.3596 -18.1385
25.5603 30.0126 -18.2222
25.6342 30.0565 -18.1989
25.7113 30.1108 -18.175
25.7051 30.1672 -18.17
25.7258 30.2483 -18.1564
25.7638 30.3066 -18.1406
25.6902 30.2065 -18.1666
25.1554 30.9209 -18.1532
25.0729 30.9096 -18.1922
25.0237 30.991 -18.206
24.9781 31.072 -18.2229
24.907 31.0646 -18.2454
24.8311 31.0836 -18.2551
24.7486 31.1501 -18.2507
24.6086 31.1091 -18.2741
25.3715 30.7888 -18.1013
25.3021 30.8491 -18.1003
25.4525 30.7336 -18.0869
25.2472 30.9285 -18.106
24.65 31.2357 -18.2434
24.5607 31.3212 -18.2209
24.426 31.3215 -18.2457
24.2888 31.3523 -18.2615
24.048 31.3425 -18.2857
24.1592 31.4001 -18.2474
23.9537 31.3142 -18.309
23.8746 31.388 -18.29
23.7882 31.4972 -18.2739
23.6345 31.4981 -18.2944
23.5703 31.3569 -18.3413
23.5105 31.2243 -18.3977
23.4557 31.1169 -18.4363
23.3782 31.0531 -18.4652
23.2689 31.0118 -18.4808
23.3135 31.1224 -18.4442
23.2653 31.2249 -18.4196
23.2001 31.3438 -18.3775
23.1151 31.4676 -18.3317
22.9341 31.4563 -18.341
22.7646 31.4418 -18.3636
22.6201 31.4407 -18.3601
22.5428 31.3157 -18.3986
22.4379 31.2213 -18.4231
22.3139 31.3181 -18.3869
22.1974 31.4031 -18.3446
22.1067 31.312 -18.3669
22.0861 31.4625 -18.3129
21.9964 31.5109 -18.2882
21.9384 31.5765 -18.2541
21.4682 31.7205 -18.1632
21.3775 31.7271 -18.1457
21.2732 31.7422 -18.1332
21.8828 31.6612 -18.2231
21.8123 31.7621 -18.1825
21.7496 31.8779 -18.1429
21.6334 31.9038 -18.1182
21.5401 31.8152 -18.1359
21.1694 31.7789 -18.1067
21.054 31.7215 -18.0956
21.0307 31.6218 -18.1114
21.0766 31.8145 -18.0703
20.9474 31.6457 -18.0749
20.8636 31.6672 -18.0463
20.7824 31.6912 -18.0028
20.699 31.7243 -17.9543
20.6137 31.7663 -17.9047
20.5307 31.8104 -17.8503
20.4437 31.8401 -17.805
20.3043 31.707 -17.77
20.2641 31.5722 -17.7835
20.2028 31.5382 -17.7594
20.1481 31.4949 -17.7359
20.3542 31.8423 -17.7648
20.0921 31.4671 -17.7184
18.9863 30.2223 -16.5593
18.9415 30.1672 -16.4559
19.0399 30.2803 -16.6668
20.0647 31.589 -17.6728
20.0419 31.7236 -17.629
19.9877 31.7102 -17.568
19.9178 31.6728 -17.5381
19.8635 31.619 -17.5087
19.8178 31.5752 -17.4608
19.7539 31.5279 -17.4094
19.6804 31.4493 -17.36
19.6147 31.3744 -17.3106
19.5581 31.3388 -17.2599
19.5111 31.3285 -17.2097
19.4618 31.3454 -17.1625
19.4171 31.3976 -17.0982
19.3786 31.2915 -17.0371
19.2491 30.949 -16.9364
19.2017 30.8956 -16.8536
19.1305 30.67 -16.7978
19.1409 30.83 -16.7803
19.1067 30.5749 -16.7785
19.0721 30.5359 -16.7149
19.0537 30.4079 -16.6962
19.3291 31.1972 -16.9881
19.2791 31.0895 -16.9544
18.8929 30.1651 -16.3651
18.8602 30.229 -16.2852
18.8057 30.2062 -16.1735
18.7794 30.0673 -16.1238
18.7676 29.9622 -16.0509
18.7311 29.9975 -15.9659
18.6635 30.0266 -15.7909
18.7048 30.0683 -15.8865
18.5224 29.5036 -15.2809
18.5065 29.6445 -15.2542
18.63 30.0071 -15.7039
18.6176 30.0756 -15.6666
18.607 30.1585 -15.6215
18.5562 30.0541 -15.4711
18.515 29.9185 -15.3388
18.4843 29.7894 -15.244
18.474 29.6984 -15.1611
18.4609 29.6439 -15.0716
18.4487 29.6177 -14.9742
18.4225 29.6055 -14.8803
18.4076 29.5894 -14.7886
18.3733 29.6953 -14.6964
18.3435 29.6905 -14.4644
18.3652 29.7924 -14.6046
18.3526 29.7839 -14.5076
18.3418 29.6133 -14.4121
18.3484 29.5268 -14.3768
18.3796 29.4116 -14.3785
18.3804 29.3877 -14.2974
18.3974 29.3408 -14.2531
18.419 29.2877 -14.2201
18.4136 29.3251 -14.1207
18.4811 29.0761 -13.9954
18.5034 29.022 -13.9355
18.5231 29.0146 -13.8369
18.5558 28.9886 -13.7206
18.457 29.177 -13.9614
18.3982 29.3622 -14.0039
18.4338 29.2884 -13.913
18.5775 28.9438 -13.6117
18.5724 28.9795 -13.5466
26.1688 26.6479 -14.5356
26.1633 26.7256 -14.6307
26.174 26.7878 -14.7106
26.1925 26.8468 -14.7844
26.1068 26.9235 -14.884
26.2 26.9076 -14.8485
26.0348 26.9419 -14.9254
26.0136 26.9803 -14.9763
25.8207 27.0897 -15.1912
25.7596 27.1112 -15.2283
25.7037 27.1448 -15.2845
26.0001 27.0263 -15.0339
25.933 27.0457 -15.0995
25.8851 27.0876 -15.163
25.6416 27.197 -15.3797
25.5452 27.2116 -15.4158
24.3735 26.3187 -12.289
25.0995 26.8413 -11.8491
25.1893 26.8018 -11.9507
25.2694 26.7756 -12.0481
24.6656 26.6356 -11.9177
24.732 26.626 -11.955
24.7667 26.623 -11.9777
24.7999 26.6749 -11.9393
24.9831 26.8008 -11.8375
24.8699 26.7581 -11.8533
24.5663 26.6117 -11.9213
25.3509 26.7596 -12.1378
25.4553 26.6749 -12.2943
25.4902 26.5842 -12.4004
25.5112 26.5139 -12.5173
25.5321 26.4705 -12.6149
25.6152 26.4922 -12.6463
25.7522 26.5718 -12.6781
25.7795 26.4792 -12.8183
25.8332 26.4323 -12.9487
25.4241 26.7383 -12.1967
24.3793 26.3963 -12.1743
24.483 26.5981 -11.9201
24.4288 26.5198 -12.0007
24.3838 26.4602 -12.0855
25.8577 26.3747 -13.0482
25.8934 26.3507 -13.1115
25.8688 26.3042 -13.1561
25.8519 26.2401 -13.198
25.9464 26.2637 -13.2503
25.9921 26.2748 -13.3378
25.9974 26.2973 -13.3012
25.972 26.2371 -13.3874
25.9889 26.2234 -13.4428
25.98 26.2208 -13.4799
25.9107 26.1841 -13.4983
25.8319 26.1225 -13.5187
25.7596 26.0739 -13.5371
25.7209 26.0439 -13.5481
25.7777 26.0732 -13.574
25.8901 26.1459 -13.6614
25.9282 26.168 -13.7174
25.8654 26.1379 -13.6101
25.9673 26.2111 -13.7807
26.0052 26.2445 -13.846
23.7524 26.5392 -12.1628
23.8682 26.5157 -12.1409
23.9854 26.5176 -12.1155
24.1107 26.5454 -12.0834
24.2607 26.569 -11.9957
24.3431 26.5052 -12.0515
26.1145 26.3065 -13.8858
26.2367 26.3542 -13.9343
26.23 26.3522 -13.9948
26.2258 26.3438 -14.0359
26.2567 26.3765 -14.0789
26.2846 26.3839 -14.1222
26.3425 26.4079 -14.1648
26.4214 26.4347 -14.2222
26.4851 26.4896 -14.2955
26.5568 26.5633 -14.3799
26.4923 26.5566 -14.4074
26.3667 26.5488 -14.4177
26.4498 26.5648 -14.4323
26.2607 26.538 -14.3934
26.2253 26.5969 -14.4533
25.544 27.2831 -15.5221
23.2098 27.041 -11.8817
23.1953 26.9933 -11.9351
23.2335 26.9366 -11.9779
23.2755 26.8509 -12.0196
23.3958 27.1648 -11.6782
23.2783 27.1314 -11.7418
23.2318 27.0924 -11.8171
23.392 26.814 -12.0095
23.5025 26.7761 -11.9957
23.5555 26.6926 -12.0523
23.5936 26.6293 -12.1011
23.6636 26.5891 -12.1231
25.9575 27.565 -15.8503
25.893 27.4888 -15.7852
26.0215 27.6323 -15.9115
25.8236 27.4138 -15.7028
25.6361 27.3643 -15.6134
25.6884 27.3441 -15.5848
25.7583 27.3624 -15.6031
26.1485 27.647 -15.8996
26.2807 27.6892 -15.8795
26.3462 27.7666 -15.9529
26.4051 27.8589 -16.0311
26.4238 28.0367 -16.2058
26.4704 27.9547 -16.1092
26.385 28.1189 -16.3009
26.3363 28.1908 -16.3837
26.6126 28.4674 -16.6504
26.6578 28.4957 -16.7109
26.7072 28.5373 -16.7535
25.5958 27.3227 -15.5532
26.6828 28.7712 -16.968
26.6097 28.8353 -17.0398
26.6827 28.6297 -16.8428
26.7134 28.684 -16.8691
26.7303 28.7343 -16.9013
26.6626 28.9061 -17.0825
26.7548 28.5821 -16.7839
26.7035 28.9731 -17.1232
26.6883 29.0588 -17.1912
26.677 29.1586 -17.2838
26.5719 29.2104 -17.3515
26.4756 29.2435 -17.4074
26.5299 29.315 -17.4527
26.612 29.4107 -17.4934
26.4776 29.5173 -17.6249
26.389 29.5968 -17.7221
26.3212 29.6649 -17.7904
26.2725 29.7047 -17.8448
26.1794 29.7246 -17.8966
26.0585 29.7542 -17.9528
26.0311 29.8051 -17.9853
26.0083 29.842 -18.0174
25.9346 29.8766 -18.059
25.8568 29.9106 -18.0828
25.8455 29.9446 -18.1095
25.8382 29.9954 -18.1314
25.687 30.0071 -18.1794
25.6681 30.5164 -18.0872
25.7268 30.4316 -18.0963
25.61 30.6017 -18.067
25.5357 30.6737 -18.0688
25.8024 30.3714 -18.1129
25.7759 30.0525 -18.1621
25.8702 30.0994 -18.1323
25.8285 30.155 -18.147
25.7863 30.2058 -18.1497
25.8405 30.2558 -18.1298
25.8741 30.3169 -18.1081
25.1905 31.016 -18.1164
25.1003 31.0047 -18.1597
25.0444 31.0846 -18.1709
24.9947 31.1589 -18.1978
24.9263 31.1356 -18.2271
24.884 31.1163 -18.2444
24.8572 31.1686 -18.2389
24.805 31.2845 -18.2063
25.465 30.8238 -18.0639
25.3849 30.8581 -18.0707
25.3469 30.925 -18.0676
25.5608 30.7702 -18.037
25.299 31.0196 -18.0609
24.6787 31.3613 -18.1951
24.6051 31.4254 -18.1903
24.5127 31.4334 -18.1999
24.3961 31.4487 -18.2069
24.2708 31.4795 -18.2032
23.9676 31.397 -18.2662
24.0418 31.4578 -18.2429
24.1409 31.5277 -18.1986
23.9202 31.4891 -18.246
23.8525 31.6029 -18.2199
23.6989 31.6203 -18.2473
23.4677 31.4925 -18.3115
23.524 31.6373 -18.2625
23.3895 31.3378 -18.3647
23.3917 31.1992 -18.4193
23.3886 31.1262 -18.4404
23.2945 31.4792 -18.3255
23.2076 31.5944 -18.2855
23.0301 31.5993 -18.2745
22.8217 31.6343 -18.2792
22.6598 31.5884 -18.2911
22.5596 31.5772 -18.3055
22.4993 31.4939 -18.3359
22.4144 31.4027 -18.3675
22.2921 31.4952 -18.3183
22.1565 31.5936 -18.2778
22.0471 31.5917 -18.2706
21.9946 31.5861 -18.2601
21.9777 31.6524 -18.238
21.4238 31.8779 -18.11
21.299 31.8728 -18.097
21.1911 31.886 -18.0851
21.9327 31.7605 -18.2095
21.8718 31.8676 -18.1555
21.8117 31.9546 -18.1198
21.7148 31.9869 -18.1084
21.6227 32.0063 -18.09
21.5347 31.9566 -18.0978
21.0974 31.9067 -18.0528
20.97 31.7525 -18.0632
20.9914 31.8474 -18.0446
21.0154 31.9332 -18.0187
20.8931 31.7794 -18.0299
20.8196 31.8117 -17.9919
20.7462 31.8497 -17.9463
20.6723 31.8897 -17.8975
20.5931 31.9355 -17.8584
20.5109 31.9858 -17.7991
20.4138 31.9669 -17.7489
20.2694 31.819 -17.7201
20.2282 31.6819 -17.7391
20.1611 31.633 -17.7151
20.1098 31.5815 -17.706
20.3145 31.9451 -17.7153
18.9905 30.3922 -16.5524
18.9397 30.2748 -16.4681
18.9163 30.2208 -16.4202
20.1133 31.6964 -17.6653
20.111 31.8497 -17.6348
20.022 31.8436 -17.565
19.9191 31.8334 -17.5106
19.8647 31.7359 -17.4856
19.8278 31.671 -17.4615
19.7714 31.6511 -17.413
19.6755 31.6222 -17.3355
19.6201 31.4971 -17.2876
19.5774 31.428 -17.2608
19.5391 31.4196 -17.2186
19.5003 31.4151 -17.1819
19.4739 31.4746 -17.1437
19.4391 31.5855 -17.0844
19.3841 31.4457 -17.0181
19.3282 31.3389 -16.9675
19.2223 31.0991 -16.8529
19.1459 31.0259 -16.7635
19.0969 30.7562 -16.7308
19.0986 30.6582 -16.7609
19.0872 30.9475 -16.6759
19.0757 30.6561 -16.7177
19.0261 30.529 -16.6233
19.042 30.6537 -16.6451
19.2733 31.2337 -16.9147
18.9045 30.2669 -16.3787
18.8833 30.3323 -16.3235
18.8339 30.3453 -16.2311
18.781 30.3476 -16.0868
18.7587 30.1844 -16.0647
18.755 30.071 -16.0387
18.7292 30.1325 -15.9765
18.6729 30.1495 -15.8265
18.6409 30.1009 -15.7492
18.7062 30.1833 -15.907
18.6483 30.1933 -15.746
18.6444 30.3508 -15.7563
18.5773 30.2458 -15.5505
18.5177 30.1263 -15.343
18.4753 29.9281 -15.2218
18.4636 29.8161 -15.1596
18.448 29.7786 -15.0822
18.4372 29.7511 -14.9927
18.4242 29.7406 -14.8994
18.3936 29.748 -14.7933
18.368 29.8324 -14.6881
18.3299 29.7914 -14.4085
18.3271 29.7145 -14.3555
18.3563 29.8891 -14.6161
18.3508 29.8828 -14.5419
18.3432 29.8768 -14.452
18.3326 29.6361 -14.2974
18.3469 29.5285 -14.2321
18.373 29.4348 -14.1843
18.3988 29.3714 -14.1711
18.3859 29.4212 -14.0869
18.491 29.1058 -13.8885
18.5114 29.0968 -13.7688
18.5432 29.0542 -13.6508
18.4617 29.1969 -13.828
18.3737 29.4683 -13.9841
18.3925 29.4013 -13.8833
18.4406 29.3078 -13.7512
18.538 29.0941 -13.5789
26.2651 26.722 -14.5991
26.3098 26.668 -14.5408
26.2632 26.7699 -14.6623
26.2852 26.8318 -14.7298
26.2999 26.899 -14.8108
26.1895 26.96 -14.9073
26.0998 26.9739 -14.9295
26.2894 26.9648 -14.8889
26.0796 27.0154 -14.9852
25.8608 27.1266 -15.2285
25.8131 27.1444 -15.2576
25.7731 27.1679 -15.3059
25.7341 27.217 -15.3656
26.0665 27.0496 -15.0439
26.0008 27.0649 -15.0909
25.9508 27.0869 -15.1493
25.9175 27.1203 -15.2067
25.7171 27.2601 -15.4518
25.6614 27.2826 -15.4787
25.6017 27.2706 -15.4809
25.073 26.9339 -11.7044
25.1735 26.986 -11.6951
25.2173 26.9341 -11.8044
25.2846 26.8878 -11.9039
25.3642 26.8394 -11.9958
24.6245 26.7003 -11.8553
24.7243 26.742 -11.8342
24.7679 26.7031 -11.8802
24.9528 26.8883 -11.7527
24.8368 26.7927 -11.7787
24.5412 26.6786 -11.8555
25.4393 26.8174 -12.0969
25.506 26.7792 -12.1998
25.5528 26.7103 -12.3151
25.5759 26.6262 -12.4271
25.5914 26.5587 -12.5387
25.6846 26.6279 -12.5657
25.8056 26.7083 -12.5716
25.9031 26.7125 -12.6473
25.904 26.6102 -12.7482
25.9267 26.5439 -12.8709
25.978 26.5066 -12.9581
25.9635 26.4505 -13.0236
24.4608 26.6798 -11.8529
24.3937 26.5932 -11.9445
25.9785 26.4166 -13.1013
25.9823 26.3829 -13.1683
25.9725 26.3255 -13.2115
26.0477 26.3538 -13.2825
26.0822 26.3328 -13.3281
26.0921 26.3042 -13.3749
26.0909 26.2847 -13.4319
26.0709 26.2666 -13.484
26.0074 26.2505 -13.5193
25.9272 26.201 -13.5433
25.8511 26.1296 -13.5603
25.9749 26.1984 -13.6382
26.0071 26.2166 -13.6901
26.0519 26.2556 -13.7469
25.9513 26.1978 -13.588
26.092 26.2888 -13.8158
23.8497 26.5833 -12.0779
23.754 26.6161 -12.0577
23.9483 26.5698 -12.0614
24.0619 26.5849 -12.0392
24.1736 26.6064 -11.9937
24.2439 26.6369 -11.9378
24.2902 26.6841 -11.8932
24.3714 26.6896 -11.8823
26.2219 26.3688 -13.8604
26.3698 26.4382 -13.9213
26.3475 26.4092 -13.9976
26.3142 26.3797 -14.0497
26.3474 26.4098 -14.1118
26.4413 26.4503 -14.1649
26.5269 26.5019 -14.2408
26.5944 26.5621 -14.3189
26.6578 26.6134 -14.3962
26.651 26.6355 -14.4524
26.5805 26.6208 -14.4513
26.5242 26.6129 -14.4716
26.4544 26.6104 -14.4922
26.3498 26.6012 -14.4828
23.3064 27.045 -11.8418
23.2824 26.9889 -11.9157
23.339 26.9043 -11.9566
23.5846 27.1488 -11.6356
23.5156 27.1159 -11.6846
23.394 27.1097 -11.7088
23.3324 27.0911 -11.772
23.4431 26.8617 -11.9333
23.5479 26.8335 -11.9246
23.612 26.7395 -11.9719
23.6589 26.6674 -12.0516
26.0134 27.5113 -15.7757
26.0814 27.5816 -15.8362
25.9404 27.4354 -15.6931
25.845 27.3652 -15.6117
25.6414 27.3144 -15.5423
25.6744 27.31 -15.533
25.7116 27.3096 -15.5277
25.777 27.3106 -15.527
26.2146 27.6145 -15.8177
26.3548 27.6464 -15.81
26.4182 27.7269 -15.8747
26.4747 27.8067 -15.9493
26.5258 27.8892 -16.021
26.5378 28.0434 -16.1778
26.4998 28.122 -16.2696
26.5805 27.9685 -16.0903
26.4526 28.1984 -16.3537
26.7606 28.491 -16.686
26.8108 28.5287 -16.7241
26.7984 28.7552 -16.9204
26.7384 28.8261 -17.0031
26.7967 28.6265 -16.8161
26.8161 28.6863 -16.8559
26.7754 28.9038 -17.0602
26.8636 28.563 -16.7563
26.7787 29.0017 -17.1295
26.7702 29.1033 -17.2082
26.7607 29.2014 -17.3004
26.6549 29.2721 -17.3778
26.7434 29.3082 -17.3767
26.7497 29.3917 -17.4356
26.6911 29.478 -17.5261
26.5895 29.5256 -17.6048
26.5011 29.5923 -17.6823
26.429 29.658 -17.7502
26.363 29.7 -17.8245
26.2726 29.7461 -17.8741
26.1577 29.7742 -17.9366
26.1149 29.8261 -17.9744
26.0411 29.8758 -18.0091
25.9486 29.918 -18.0551
25.9545 29.961 -18.0733
25.9689 30.0038 -18.0726
25.9138 30.0456 -18.0992
25.7631 30.6066 -18.0332
25.7957 30.5047 -18.0557
25.8456 30.4313 -18.0674
25.6624 30.6999 -18.0244
25.9073 30.3725 -18.0772
26.0221 30.077 -18.0696
25.9634 30.1411 -18.0895
25.9289 30.2055 -18.1148
25.956 30.2744 -18.1054
25.9617 30.3279 -18.0864
25.2244 31.1088 -18.0806
25.1274 31.1006 -18.1255
25.0613 31.1745 -18.1364
24.999 31.2395 -18.1633
24.9231 31.2196 -18.2112
24.8618 31.3972 -18.1346
24.7584 31.4256 -18.1431
24.9292 31.3066 -18.1689
25.5629 30.869 -18.0179
25.4476 30.9025 -18.0371
25.4134 30.9822 -18.0277
25.6895 30.812 -17.9732
25.3865 31.0569 -18.006
25.3153 31.1133 -18.032
24.667 31.4824 -18.1469
24.5773 31.5333 -18.1523
24.471 31.5509 -18.1487
24.36 31.5622 -18.157
24.2439 31.5973 -18.157
24.0016 31.575 -18.2054
24.1074 31.6545 -18.1529
23.943 31.6982 -18.1646
23.7748 31.7196 -18.1919
23.6183 31.7334 -18.2061
23.3657 31.6022 -18.278
23.4712 31.7569 -18.1988
23.3889 31.7015 -18.2372
23.2811 31.6853 -18.2453
23.1374 31.7015 -18.2292
22.9587 31.7455 -18.2094
22.7673 31.8266 -18.19
22.6514 31.7481 -18.222
22.5518 31.7035 -18.2511
22.4665 31.6532 -18.2693
22.384 31.5798 -18.2939
22.2608 31.6782 -18.2474
22.1302 31.7769 -18.2012
22.0453 31.7098 -18.2266
21.4591 32.0287 -18.0666
21.3425 32.0027 -18.0657
21.2291 31.9895 -18.0428
21.1273 31.9951 -18.031
21.9978 31.847 -18.1769
21.9157 31.9616 -18.1184
21.8045 32.0426 -18.0872
21.6818 32.0806 -18.0774
21.568 32.0638 -18.0611
21.0454 32.0116 -17.9997
20.9187 31.8731 -18.0134
20.9406 31.9573 -17.9931
20.9672 32.0431 -17.981
20.851 31.9091 -17.987
20.7856 31.9569 -17.9442
20.7169 32.0002 -17.8989
20.6475 32.0346 -17.8641
20.5874 32.074 -17.8215
20.4514 32.0847 -17.7487
20.5276 32.1298 -17.7872
20.36 32.052 -17.7101
20.2122 31.9093 -17.6841
20.1807 31.7739 -17.6919
20.2614 32.018 -17.6706
18.985 30.5594 -16.5294
18.9359 30.506 -16.4366
18.9221 30.3698 -16.4152
20.1601 31.9816 -17.6282
20.0664 31.9551 -17.5736
19.9729 31.9463 -17.5273
19.8957 31.9543 -17.4782
19.8543 31.9081 -17.454
19.8355 31.8311 -17.4563
19.8051 31.7477 -17.4306
19.7382 31.7445 -17.368
19.6653 31.7722 -17.3127
19.6022 31.7225 -17.2635
19.5904 31.6004 -17.2547
19.5621 31.5042 -17.2365
19.5183 31.4982 -17.1906
19.503 31.5899 -17.1602
19.4972 31.7163 -17.1434
19.4438 31.7616 -17.091
19.4044 31.6943 -17.0318
19.3736 31.5735 -17.0047
19.3282 31.4703 -16.9579
19.2762 31.3788 -16.9013
19.16 31.2106 -16.7613
19.2263 31.2868 -16.832
19.1025 31.1539 -16.677
19.0554 30.7892 -16.653
19.0528 31.1086 -16.5831
19.0303 30.9339 -16.5741
19.0038 30.6494 -16.57
19.0148 30.7772 -16.5733
18.8742 30.4471 -16.3244
18.8241 30.4968 -16.1996
18.7715 30.5254 -16.052
18.7157 30.3869 -15.9399
18.7259 30.2572 -15.9747
18.6826 30.2633 -15.861
18.705 30.5302 -15.9053
18.6638 30.5343 -15.7765
18.6154 30.4276 -15.6378
18.5639 30.3396 -15.4817
18.5284 30.3035 -15.3476
18.4817 30.1963 -15.2155
18.4648 30.0402 -15.1613
18.4457 29.9012 -15.1098
18.4331 29.8706 -15.014
18.4138 29.852 -14.9302
18.3953 29.8603 -14.8481
18.3723 29.9039 -14.7613
18.3496 29.9514 -14.6717
18.3175 29.87 -14.3709
18.3164 29.8026 -14.3194
18.3161 29.7392 -14.2551
18.3484 29.9687 -14.5833
18.3407 29.9629 -14.4972
18.3237 29.9464 -14.4147
18.324 29.6672 -14.1793
18.3333 29.6045 -14.088
18.36 29.511 -14.0877
18.4962 29.1677 -13.6954
18.3547 29.5621 -13.9902
18.3728 29.5111 -13.8953
18.3959 29.4493 -13.7945
26.3613 26.7325 -14.6242
26.3146 26.7566 -14.6366
26.4558 26.7024 -14.5828
26.3495 26.7897 -14.6868
26.4033 26.8772 -14.7651
26.3945 26.9708 -14.8613
26.254 27.0124 -14.9499
26.1651 27.0026 -14.9608
26.3713 27.0549 -14.9691
26.139 27.0407 -15.011
25.8998 27.1488 -15.2708
25.8553 27.1629 -15.2806
25.8323 27.1916 -15.3213
25.807 27.2226 -15.3813
25.7892 27.2674 -15.4478
26.1243 27.0703 -15.065
26.0628 27.0816 -15.0955
26.0131 27.0969 -15.1401
25.973 27.1224 -15.1875
25.9535 27.1488 -15.2453
25.0448 27.0439 -11.5777
25.1583 27.0586 -11.5791
25.2227 27.0891 -11.6056
25.2557 27.05 -11.6807
25.3111 26.9934 -11.7673
25.3782 26.9429 -11.8633
25.4581 26.9084 -11.968
24.6044 26.7429 -11.7899
24.6902 26.7812 -11.7842
24.7919 26.8379 -11.7444
24.9085 26.916 -11.6804
24.5233 26.7507 -11.7858
25.5399 26.881 -12.08
25.6385 26.8407 -12.2008
25.6646 26.7484 -12.3368
25.674 26.6716 -12.4494
25.7776 26.7279 -12.4764
25.8707 26.7815 -12.4961
25.9363 26.7989 -12.5521
26.0471 26.8218 -12.607
26.0373 26.7464 -12.7123
26.063 26.6657 -12.84
26.0489 26.5808 -12.9301
26.0525 26.5455 -12.9762
26.0624 26.5172 -13.0178
26.0867 26.4752 -13.0802
24.4365 26.7915 -11.757
26.1068 26.4382 -13.1537
26.1015 26.4183 -13.2436
26.1577 26.3962 -13.3073
26.1796 26.3699 -13.3631
26.1943 26.3392 -13.4147
26.1939 26.3344 -13.4851
26.1202 26.3021 -13.5379
26.0399 26.2539 -13.5652
26.0608 26.2522 -13.6161
26.0686 26.2478 -13.6597
26.122 26.29 -13.706
26.2118 26.3428 -13.7739
23.9294 26.6192 -12.0238
23.8585 26.6404 -11.987
23.7603 26.7305 -11.9587
24.0191 26.6265 -11.9967
24.1263 26.6461 -11.9746
24.2086 26.65 -11.938
24.2407 26.6535 -11.9255
24.2439 26.6764 -11.9054
24.2487 26.7455 -11.8396
24.3372 26.7667 -11.8052
26.3841 26.4242 -13.8341
26.5911 26.5274 -13.9154
26.4971 26.4887 -14.0048
26.4384 26.4593 -14.0851
26.5577 26.511 -14.1708
26.6673 26.5705 -14.2612
26.7052 26.6153 -14.3538
26.7306 26.6562 -14.4152
26.7249 26.6636 -14.4658
26.7225 26.7019 -14.5183
26.6511 26.6809 -14.5094
26.5912 26.662 -14.5064
26.5469 26.6745 -14.5399
23.389 27.0396 -11.7978
23.3836 26.9572 -11.8644
23.7377 27.1153 -11.6195
23.657 27.0956 -11.6693
23.4743 27.0661 -11.7119
23.5951 27.0487 -11.727
23.4041 27.0728 -11.7388
23.4882 26.9174 -11.8667
23.5786 26.8996 -11.8545
23.6538 26.819 -11.902
26.1482 27.5415 -15.7653
26.0784 27.4772 -15.7077
25.9235 27.3793 -15.5991
26.0197 27.4289 -15.6421
25.8499 27.3186 -15.5295
26.2867 27.5783 -15.7487
26.4257 27.6061 -15.7423
26.491 27.6849 -15.8067
26.5435 27.7683 -15.8826
26.5806 27.8354 -15.9596
26.6191 27.8988 -16.0152
26.6339 28.0408 -16.1595
26.5993 28.1249 -16.2318
26.6698 27.9628 -16.0721
26.8497 28.4845 -16.6564
26.9077 28.5085 -16.6893
26.9151 28.6966 -16.8545
26.8909 28.8005 -16.9605
26.9221 28.6067 -16.7863
26.867 28.9337 -17.0541
26.9674 28.5199 -16.7174
26.8538 29.0384 -17.1344
26.846 29.1318 -17.2215
26.8363 29.2282 -17.2959
26.8267 29.313 -17.3592
26.785 29.435 -17.466
26.8231 29.3722 -17.4034
26.7445 29.5272 -17.5472
26.6483 29.5671 -17.6106
26.5738 29.5985 -17.659
26.5218 29.6515 -17.7221
26.4573 29.7076 -17.787
26.3781 29.7544 -17.8525
26.2616 29.8024 -17.9189
26.1748 29.86 -17.9756
26.0794 29.9217 -18.0122
26.0528 29.9743 -18.0384
26.0399 30.0025 -18.0476
26.0313 30.0281 -18.057
25.8965 30.619 -17.9682
25.8103 30.7225 -17.9632
25.8722 30.5482 -18.0117
25.894 30.489 -18.037
25.9432 30.4268 -18.0402
26.0034 30.3701 -18.0552
26.1366 30.0301 -18.0346
26.1574 30.0711 -18.0327
26.0909 30.1185 -18.0537
26.0569 30.1717 -18.0642
26.0571 30.2325 -18.0728
26.0447 30.3022 -18.0592
25.2615 31.1848 -18.0313
25.1537 31.2005 -18.0743
25.0632 31.2601 -18.1017
25.0006 31.3054 -18.1276
24.8089 31.5108 -18.0938
24.9625 31.3823 -18.1083
24.9058 31.4957 -18.0583
24.7259 31.5548 -18.1035
25.6683 30.9253 -17.9516
25.5287 30.9547 -17.9953
25.4854 31.0306 -17.9864
25.8759 30.879 -17.8775
25.3882 31.1248 -17.9817
25.449 31.0843 -17.9691
25.3341 31.1709 -17.9958
24.6413 31.6192 -18.1052
24.5287 31.6977 -18.0942
24.413 31.6562 -18.1083
24.3233 31.6485 -18.1186
24.2322 31.7138 -18.1247
24.0735 31.8154 -18.1016
23.857 31.8206 -18.1379
23.6927 31.8177 -18.1456
23.5493 31.8315 -18.1557
23.3437 31.778 -18.1935
23.3913 31.8719 -18.1536
23.3183 31.7327 -18.2224
23.2383 31.7631 -18.2054
23.0932 31.8245 -18.1892
22.91 31.904 -18.1598
22.5926 31.8996 -18.158
22.6934 32.0055 -18.1199
22.5347 31.821 -18.1918
22.4459 31.8007 -18.2077
22.3535 31.7492 -18.2225
22.2244 31.8496 -18.1728
22.0655 31.9539 -18.1372
21.5102 32.118 -18.0371
21.4092 32.1157 -18.0348
21.2886 32.0956 -18.0066
21.1729 32.0817 -17.9927
21.0866 32.0725 -17.987
21.924 32.072 -18.0747
21.7729 32.157 -18.0382
21.6158 32.1502 -18.0314
21.022 32.1136 -17.9709
20.8841 31.9689 -17.9735
20.8957 32.0531 -17.9508
20.9369 32.1568 -17.9348
20.832 32.0295 -17.9471
20.7636 32.1044 -17.8986
20.6864 32.1225 -17.8633
20.6313 32.1315 -17.8407
20.5898 32.1776 -17.8153
20.4747 32.1833 -17.7474
20.393 32.1435 -17.7109
20.5455 32.2227 -17.7775
20.3022 32.1059 -17.6679
20.2028 32.072 -17.6269
18.9823 30.6467 -16.5176
18.9543 30.6433 -16.4554
18.8891 30.6255 -16.3283
20.1058 32.0448 -17.5809
20.014 32.0284 -17.5353
19.9306 32.0214 -17.4909
19.8559 32.016 -17.4512
19.839 31.9647 -17.4332
19.825 31.9333 -17.4254
19.8043 31.8962 -17.4204
19.7753 31.8293 -17.3981
19.7172 31.8374 -17.342
19.6619 31.859 -17.3075
19.6187 31.8384 -17.2625
19.5497 31.8129 -17.2045
19.5465 31.6724 -17.2037
19.5419 31.5749 -17.209
19.491 31.8492 -17.1397
19.3586 31.6585 -16.9773
19.3269 31.5672 -16.9566
19.2815 31.5041 -16.9084
19.2416 31.4281 -16.8343
19.1828 31.3612 -16.7673
19.135 31.311 -16.6899
19.0825 31.2736 -16.6088
19.0266 31.232 -16.5053
18.9986 31.0481 -16.4877
18.9837 30.8792 -16.4889
18.9828 30.7331 -16.5024
18.8289 30.6683 -16.1743
18.7652 30.691 -16.022
18.7064 30.6504 -15.8782
18.6406 30.5714 -15.6931
18.6732 30.6367 -15.7873
18.6029 30.4944 -15.5701
18.5596 30.4316 -15.4501
18.5022 30.3333 -15.2666
18.5343 30.3994 -15.3592
18.4612 30.2709 -15.1351
18.4406 30.1194 -15.0813
18.4335 29.9893 -15.0429
18.4191 29.9547 -14.9525
18.4021 29.9338 -14.8876
18.3819 29.9761 -14.8292
18.3584 30.0432 -14.7501
18.3493 30.0515 -14.6394
18.3072 29.9264 -14.3417
18.3057 29.8659 -14.3074
18.3009 29.8263 -14.2503
18.3052 29.7764 -14.1622
18.3188 29.6941 -14.0743
18.3352 29.6354 -14.0055
18.3582 29.6059 -13.9263
26.4446 26.7926 -14.6869
26.5898 26.7581 -14.6125
26.5478 26.8078 -14.6775
26.5229 26.8715 -14.7591
26.5072 26.9583 -14.8437
26.4895 27.0353 -14.9365
26.2786 27.0627 -15.0004
26.2115 27.041 -14.9951
26.4828 27.0995 -15.0113
26.4299 27.1171 -15.0349
26.3739 27.1201 -15.0435
26.3228 27.0966 -15.0365
26.1836 27.0721 -15.0365
25.9428 27.1857 -15.3056
25.8884 27.1938 -15.3287
25.8721 27.2299 -15.3936
25.8563 27.27 -15.4605
26.168 27.1097 -15.0764
26.1106 27.1178 -15.0955
26.0667 27.1214 -15.133
26.0263 27.1349 -15.1716
25.9907 27.1617 -15.2058
25.9711 27.1976 -15.2502
24.943 27.0226 -11.5705
25.0144 27.1438 -11.4624
25.1069 27.1996 -11.4305
25.1662 27.1749 -11.4817
25.2378 27.1567 -11.5107
25.2948 27.1342 -11.5674
25.3432 27.0985 -11.6507
25.3978 27.0597 -11.7486
25.4701 27.0209 -11.85
25.5608 26.9856 -11.9513
24.5869 26.8036 -11.734
24.6623 26.8184 -11.7296
24.7547 26.8576 -11.6995
24.8544 26.9169 -11.6415
24.5251 26.8226 -11.7088
25.6656 26.951 -12.052
25.7749 26.9561 -12.1542
25.7895 26.8465 -12.2535
25.7851 26.7808 -12.3712
25.8852 26.8311 -12.4199
25.9594 26.8794 -12.4763
26.0536 26.908 -12.5247
26.1859 26.9315 -12.5508
26.1862 26.8397 -12.6586
26.1822 26.7881 -12.7822
26.2277 26.7345 -12.8883
26.1667 26.6501 -12.9472
26.121 26.5866 -13.0067
26.1764 26.548 -13.0627
26.2184 26.5025 -13.1306
24.3593 26.8417 -11.7036
24.4144 26.9005 -11.6576
24.4841 26.8821 -11.6551
26.2365 26.477 -13.2076
26.2429 26.4652 -13.2856
26.2609 26.4286 -13.3409
26.2714 26.3981 -13.394
26.289 26.3824 -13.4494
26.3222 26.3992 -13.5089
26.2407 26.3661 -13.5548
26.151 26.3168 -13.5949
26.1566 26.3108 -13.652
26.2657 26.3463 -13.6998
26.3905 26.4051 -13.7534
23.9749 26.6724 -11.9606
23.9167 26.7341 -11.9228
23.865 26.8068 -11.8593
23.7544 26.8394 -11.8606
24.0855 26.6943 -11.9396
24.1822 26.6903 -11.9046
24.2881 26.825 -11.7469
24.148 26.7491 -11.8555
24.2019 26.8137 -11.7715
26.5475 26.4729 -13.8078
26.7163 26.5521 -13.8379
26.8116 26.6042 -13.9214
26.7863 26.6103 -14.0055
26.6574 26.5666 -14.0381
26.5924 26.526 -14.0983
26.6811 26.5876 -14.1771
26.7858 26.6462 -14.2522
26.7841 26.6569 -14.3344
26.7961 26.676 -14.4081
