23.2444 -10.4442 -3.18713
23.3771 -10.4632 -3.06461
23.1945 -10.439 -3.25099
23.1554 -10.4075 -3.29563
22.9708 -10.3608 -3.43517
23.0509 -10.3714 -3.38454
23.1321 -10.3898 -3.3434
22.9314 -10.3312 -3.4799
22.877 -10.2934 -3.54146
22.7914 -10.2766 -3.62174
22.7781 -10.2419 -3.66989
22.6914 -10.0661 -3.85553
22.4646 -10.048 -3.97803
22.2381 -10.08 -4.0832
22.8357 -10.1822 -3.67666
22.8744 -10.1123 -3.7338
21.7775 -10.1035 -4.29049
21.7608 -9.97414 -4.41514
21.6791 -9.93289 -4.49355
21.5958 -9.92201 -4.54617
21.5174 -9.93314 -4.5728
21.4647 -10.0139 -4.48141
21.4016 -9.86574 -4.66637
21.339 -9.81283 -4.74009
21.2695 -9.74769 -4.81329
21.1977 -9.81717 -4.76562
21.145 -9.88842 -4.71976
21.4572 -9.90635 -4.60276
21.0702 -9.81681 -4.76886
20.9837 -9.77421 -4.83323
20.9532 -9.85833 -4.75788
20.8117 -9.78536 -4.82886
20.8033 -9.66064 -4.92717
20.7095 -9.57643 -5.00585
20.6328 -9.60515 -4.97197
20.5496 -9.60353 -4.98154
20.4717 -9.56283 -5.00443
20.3987 -9.50187 -5.0614
20.332 -9.40547 -5.12405
20.2585 -9.3854 -5.10567
20.169 -9.35461 -5.12114
20.0658 -9.29392 -5.14538
20.026 -9.36349 -5.06785
19.9555 -9.23108 -5.16475
19.8475 -9.1593 -5.16247
19.7923 -9.2141 -5.10466
19.7297 -9.22674 -5.06961
19.6534 -9.21174 -5.0351
19.5596 -9.21698 -4.98233
19.4688 -9.21519 -4.9249
19.4248 -9.31763 -4.79402
19.3734 -9.39714 -4.67223
19.313 -9.36089 -4.65286
19.2524 -9.366 -4.61569
19.1969 -9.38053 -4.54379
19.141 -9.40231 -4.46869
18.9079 -9.35746 -4.27271
18.8432 -9.41619 -4.09977
18.7577 -9.43691 -3.95345
18.692 -9.47694 -3.83267
18.6121 -9.4276 -3.75826
18.5197 -9.3923 -3.67395
18.437 -9.34593 -3.5773
18.3496 -9.29581 -3.48754
18.2449 -9.2381 -3.41118
18.1053 -9.35865 -2.94894
18.1292 -9.12675 -3.33203
18.1229 -9.25512 -3.14021
19.1091 -9.34151 -4.50929
19.0599 -9.31151 -4.4755
18.9887 -9.26784 -4.43089
18.0335 -9.36638 -2.79796
17.9615 -9.34957 -2.67331
17.9136 -9.37788 -2.53815
17.8362 -9.45603 -2.23061
17.8705 -9.42217 -2.35505
17.8858 -9.38091 -2.4456
17.792 -9.41949 -2.11727
17.7402 -9.38786 -2.03507
17.7183 -9.34797 -1.96032
17.6901 -9.32663 -1.90442
17.6757 -9.35186 -1.83146
17.6662 -9.38602 -1.74092
17.6476 -9.31202 -1.71171
17.5978 -9.23342 -1.69154
17.6012 -9.26785 -1.56369
17.6135 -9.27008 -1.451
17.6437 -9.33343 -1.36659
17.661 -9.40548 -1.27445
17.6789 -9.47068 -1.18483
17.7151 -9.50958 -1.11585
17.6901 -9.46925 -1.09181
17.6495 -9.417 -1.06604
17.6708 -9.42666 -0.962859
17.6896 -9.45544 -0.85369
17.7164 -9.50579 -0.738173
17.7831 -9.57627 -0.628138
17.8071 -9.67281 -0.569948
17.8264 -9.72313 -0.544458
17.8305 -9.70003 -0.494534
17.8697 -9.70702 -0.359765
17.848 -9.67486 -0.426386
17.8978 -9.72176 -0.323187
17.8933 -9.68869 -0.290865
17.8826 -9.64435 -0.247014
17.8813 -9.61539 -0.159353
17.8621 -9.56522 0.0557771
17.8698 -9.58027 -0.0309813
17.8851 -9.54349 0.139154
17.8756 -9.58616 -0.0969926
17.9344 -9.50818 0.213028
17.9814 -9.53351 0.220683
18.0142 -9.5339 0.210601
18.056 -9.54133 0.250165
18.1146 -9.54073 0.289197
18.1359 -9.55381 0.263397
18.1592 -9.55012 0.235712
18.61 -9.54989 0.368574
18.6065 -9.53891 0.400946
19.094 -9.52734 0.512771
19.1776 -9.54427 0.501592
18.7417 -9.50663 0.462728
18.8313 -9.5121 0.465836
18.9047 -9.51667 0.494101
19.0007 -9.50074 0.518564
18.6198 -9.51408 0.453027
18.2092 -9.54221 0.291084
18.2527 -9.51613 0.337648
18.3208 -9.51706 0.386587
18.4048 -9.49127 0.44896
18.5042 -9.49686 0.449232
20.0776 -9.52983 0.754939
20.1514 -9.51392 0.776743
20.2417 -9.50598 0.815321
19.1883 -9.51482 0.537814
19.5604 -9.49618 0.668067
19.688 -9.49771 0.701114
19.1913 -9.48894 0.582271
19.2835 -9.48419 0.610283
19.4286 -9.49006 0.644797
19.3566 -9.47481 0.630732
19.4885 -9.49462 0.655163
19.8365 -9.49364 0.746449
20.0475 -9.50733 0.766236
20.0003 -9.48157 0.79114
20.3376 -9.49508 0.846525
20.4331 -9.47705 0.885974
20.5373 -9.4647 0.93392
21.4457 -9.67904 0.738692
21.463 -9.70228 0.685145
21.5536 -9.61786 0.896578
21.4733 -9.64183 0.812745
21.4473 -9.66692 0.776937
21.6131 -9.57927 0.99981
20.7848 -9.483 0.999911
20.6715 -9.44848 0.988254
20.899 -9.50325 1.01185
21.0385 -9.5058 1.02836
21.1373 -9.51171 1.04644
21.2417 -9.5013 1.08471
21.3637 -9.48314 1.14164
21.4818 -9.48382 1.15208
21.6038 -9.49128 1.16781
21.6271 -9.51392 1.12339
21.7177 -9.5306 1.09236
21.6115 -9.70819 0.664019
21.7399 -9.72128 0.656414
21.8628 -9.71625 0.692129
22.0403 -9.6966 0.767588
22.1355 -9.73184 0.678898
22.2144 -9.74315 0.612865
22.3014 -9.75298 0.560344
22.4018 -9.76972 0.515949
22.5211 -9.79423 0.483065
22.6768 -9.83075 0.453671
22.7929 -9.87363 0.381828
22.9388 -9.91938 0.313243
23.1514 -9.94894 0.277494
23.3909 -9.97269 0.258463
23.55 -10.0253 0.14192
23.6293 -10.0635 0.0600463
23.7389 -10.0827 0.040992
23.8762 -10.1202 0.0196008
24.0057 -10.1907 -0.167505
24.0286 -10.2201 -0.234487
24.0658 -10.2247 -0.303998
24.1178 -10.2446 -0.388199
23.9531 -10.1595 -0.0598348
24.0064 -10.1723 -0.104607
24.1016 -10.2713 -0.515164
24.0855 -10.2941 -0.634246
24.0843 -10.2991 -0.748962
24.1218 -10.3227 -0.847934
24.0623 -10.3418 -0.994805
23.9928 -10.3737 -1.21469
23.5692 -10.4569 -1.52615
23.8462 -10.3945 -1.35701
23.7607 -10.4144 -1.44698
23.6784 -10.4373 -1.47443
23.6297 -10.4578 -1.61228
23.6757 -10.4656 -1.70735
23.7079 -10.4768 -1.81305
23.7242 -10.4698 -1.93355
23.7217 -10.4745 -2.06002
23.6987 -10.4712 -2.19152
23.6738 -10.4683 -2.32274
23.6586 -10.451 -2.44588
23.5885 -10.4703 -2.56223
23.506 -10.4995 -2.68999
23.463 -10.5041 -2.80741
23.4219 -10.4828 -2.87468
23.4293 -10.4791 -2.92037
23.4388 -10.4704 -2.96777
20.8838 -9.8322 -4.77775
22.1096 -9.9901 -4.23219
21.9445 -10.0647 -4.2495
21.8561 -10.1205 -4.25072
23.456 -10.4691 -3.00759
23.4119 -10.4661 -3.10162
23.3506 -10.4642 -3.1761
23.28 -10.4354 -3.22391
23.4755 -10.4516 -3.03593
23.2272 -10.4203 -3.26479
23.2066 -10.3977 -3.29779
23.0277 -10.3378 -3.41962
23.1151 -10.3541 -3.37105
23.1789 -10.3721 -3.32849
23.0042 -10.3044 -3.47673
22.9411 -10.2412 -3.56217
22.8963 -10.0119 -3.80531
22.6682 -9.94062 -4.00373
22.3576 -9.96735 -4.12178
22.9963 -10.1517 -3.59573
23.0454 -10.066 -3.64388
21.8469 -10.0213 -4.34502
21.8392 -9.88971 -4.47143
21.7615 -9.83341 -4.56689
21.667 -9.74231 -4.69084
21.5474 -9.8332 -4.66039
21.498 -9.86869 -4.64217
21.473 -9.82064 -4.69129
21.4288 -9.76467 -4.77733
21.3579 -9.69391 -4.84875
21.1875 -9.67508 -4.87636
21.2747 -9.61318 -4.93952
21.1237 -9.75045 -4.83457
21.0344 -9.69656 -4.90842
20.8915 -9.74697 -4.84691
20.9086 -9.62862 -4.95116
20.7916 -9.52831 -5.04263
20.6864 -9.43698 -5.13154
20.628 -9.49644 -5.07512
20.5758 -9.53966 -5.04719
20.5144 -9.51502 -5.0602
20.4554 -9.49859 -5.09318
20.3993 -9.41057 -5.13852
20.3374 -9.2941 -5.20151
20.2675 -9.29379 -5.18842
20.2003 -9.30064 -5.18186
20.118 -9.23481 -5.21553
20.0001 -9.15615 -5.25899
19.8923 -9.11481 -5.25255
19.7869 -9.05851 -5.27011
19.7487 -9.12981 -5.17966
19.735 -9.17305 -5.12786
19.6838 -9.14048 -5.14203
19.5852 -9.05942 -5.15701
19.4866 -9.09919 -5.06098
19.4196 -9.12638 -4.99917
19.3841 -9.19865 -4.89768
19.3469 -9.28243 -4.77564
19.2779 -9.27319 -4.73218
19.2199 -9.28155 -4.65969
19.1586 -9.309 -4.57968
18.8055 -9.31343 -4.17439
18.8856 -9.2464 -4.33787
18.7311 -9.35513 -4.02136
18.6696 -9.38369 -3.87949
18.5712 -9.33495 -3.79073
18.4664 -9.29772 -3.7056
18.3752 -9.24612 -3.61856
18.2885 -9.18565 -3.54494
18.2002 -9.11401 -3.48783
18.0458 -9.20158 -3.03335
18.0132 -9.26474 -2.90978
18.1394 -9.02173 -3.4715
18.0614 -8.96416 -3.40433
18.0302 -8.99759 -3.28112
18.0439 -9.10919 -3.17743
19.1017 -9.25873 -4.59658
19.0448 -9.21944 -4.5672
19.0157 -9.18181 -4.54532
18.9514 -9.1761 -4.48879
17.9727 -9.25996 -2.81317
17.8799 -9.26612 -2.62518
17.9105 -9.20939 -2.75041
17.8505 -9.30311 -2.51427
17.8245 -9.35047 -2.31077
17.7894 -9.34712 -2.21495
17.8452 -9.32911 -2.4079
17.7511 -9.31956 -2.13585
17.7061 -9.28311 -2.06847
17.6778 -9.26092 -1.98933
17.6576 -9.26938 -1.90312
17.6532 -9.28827 -1.81101
17.6185 -9.22026 -1.80033
17.5749 -9.15102 -1.80689
17.5695 -9.13267 -1.73219
17.57 -9.18896 -1.62702
17.5787 -9.20823 -1.52487
17.5846 -9.20233 -1.42083
17.6196 -9.26255 -1.34131
17.6314 -9.33615 -1.25601
17.6537 -9.40826 -1.16936
17.629 -9.33849 -1.14653
17.6248 -9.3443 -1.03799
17.6334 -9.35909 -0.921389
17.6756 -9.39981 -0.796569
17.7387 -9.45937 -0.662029
17.7885 -9.54194 -0.536376
17.8129 -9.63497 -0.510332
17.8732 -9.65521 -0.347863
17.8418 -9.60914 -0.434551
17.8567 -9.59205 -0.344922
17.8625 -9.5794 -0.254812
17.8548 -9.56895 -0.167082
17.8408 -9.53943 -0.0142251
17.8359 -9.51384 0.0512877
17.8673 -9.51462 0.102277
17.8562 -9.54838 -0.0876166
17.9018 -9.49179 0.151291
17.9353 -9.45828 0.205464
17.9905 -9.45568 0.261552
18.0133 -9.49133 0.264795
18.0424 -9.51259 0.255389
18.1055 -9.50484 0.295461
18.1681 -9.51345 0.350909
18.1844 -9.52447 0.317684
19.0947 -9.49745 0.552024
18.7058 -9.48524 0.498147
18.8082 -9.49973 0.508753
18.9045 -9.47882 0.527823
19.0045 -9.46738 0.556311
18.5993 -9.46545 0.490775
18.2451 -9.50795 0.372476
18.3176 -9.48114 0.435411
18.4042 -9.44764 0.48082
18.4987 -9.45571 0.488642
20.1388 -9.48354 0.799436
20.2392 -9.46578 0.828418
19.4942 -9.47159 0.667334
19.6047 -9.47348 0.706682
19.7439 -9.4671 0.748007
19.0999 -9.4653 0.591072
19.2026 -9.45216 0.611583
19.3057 -9.44776 0.635001
19.4028 -9.46769 0.666334
19.89 -9.44934 0.776393
20.1316 -9.45387 0.830579
20.0243 -9.44662 0.8323
20.332 -9.45179 0.862539
20.4228 -9.43988 0.909585
20.5254 -9.42663 0.963364
21.5375 -9.66472 0.770965
21.5768 -9.68515 0.719825
21.7324 -9.59938 0.962591
21.7244 -9.62952 0.887042
21.6196 -9.65093 0.826878
21.799 -9.56302 1.04639
20.8286 -9.44903 1.03293
20.9195 -9.47172 1.04283
20.7634 -9.41864 1.03873
20.6311 -9.40629 1.00567
21.0314 -9.48287 1.05847
21.1438 -9.49149 1.07542
21.2545 -9.47684 1.12557
21.3645 -9.45624 1.18053
21.4851 -9.46087 1.20556
21.6081 -9.46416 1.21812
21.7166 -9.4686 1.22442
21.7114 -9.49311 1.18411
21.7526 -9.50165 1.15846
21.8566 -9.50976 1.16986
21.8973 -9.53558 1.12781
21.7223 -9.7009 0.710125
21.8384 -9.68839 0.768865
21.9264 -9.66207 0.840187
22.0875 -9.6597 0.884192
22.2441 -9.67814 0.870963
22.2257 -9.71017 0.771523
22.2633 -9.71463 0.705867
22.3385 -9.72446 0.660554
22.4358 -9.74245 0.61928
22.5444 -9.76384 0.585369
22.6695 -9.78088 0.558898
22.8145 -9.79429 0.545525
22.8482 -9.84245 0.462037
22.94 -9.88084 0.401532
23.0771 -9.90744 0.36037
23.2372 -9.9228 0.353358
23.3808 -9.92163 0.397895
23.5294 -9.92689 0.375731
23.6163 -9.97677 0.272257
23.7048 -10.0293 0.161074
23.8542 -10.0508 0.16476
23.9961 -10.0608 0.163584
24.0353 -10.1188 0.0553115
24.0886 -10.1699 -0.0913744
24.1093 -10.189 -0.149232
24.1442 -10.1974 -0.201939
24.1962 -10.1981 -0.266639
24.2621 -10.205 -0.331818
24.2184 -10.2336 -0.446359
24.0706 -10.1491 -0.025372
24.1915 -10.2712 -0.557632
24.1746 -10.2854 -0.660741
24.1822 -10.2887 -0.750013
24.2237 -10.3039 -0.817097
24.1961 -10.314 -0.931672
24.157 -10.3384 -1.09207
24.1359 -10.3551 -1.25209
24.0502 -10.3729 -1.39548
23.926 -10.384 -1.44676
23.8152 -10.4126 -1.51926
23.7219 -10.438 -1.5695
23.7654 -10.4446 -1.67203
23.8 -10.4474 -1.79179
23.819 -10.4524 -1.9235
23.8024 -10.4518 -2.06761
23.7654 -10.4441 -2.21202
23.7438 -10.4403 -2.34197
23.7384 -10.4316 -2.45632
23.675 -10.4571 -2.56176
23.6156 -10.473 -2.67111
23.5623 -10.5049 -2.77476
23.5056 -10.4797 -2.85095
23.5237 -10.4734 -2.90556
23.533 -10.4764 -2.9534
21.9445 -9.9418 -4.3696
22.2394 -9.88522 -4.2763
22.0637 -9.86099 -4.39261
23.5422 -10.46 -2.9851
23.4439 -10.4394 -3.13214
23.5044 -10.4394 -3.06548
23.3699 -10.4213 -3.1938
23.2828 -10.4005 -3.24197
23.5625 -10.4465 -3.01394
23.2518 -10.3661 -3.27993
23.1039 -10.3097 -3.39392
23.1962 -10.3442 -3.34449
23.1018 -10.2689 -3.45235
23.1076 -10.2056 -3.4941
23.1094 -9.95721 -3.71308
22.9602 -9.87448 -3.88473
22.8298 -9.8096 -4.0386
22.6262 -9.80479 -4.13326
22.447 -9.86771 -4.1843
23.1525 -10.1355 -3.53295
23.2169 -10.0536 -3.57424
21.9287 -9.80523 -4.49934
21.8436 -9.7574 -4.58896
21.805 -9.70114 -4.68009
21.5773 -9.61408 -4.83335
21.5212 -9.72788 -4.75338
21.8074 -9.58787 -4.7673
21.7002 -9.55678 -4.84137
21.4577 -9.64792 -4.84596
21.3904 -9.5857 -4.9296
21.1494 -9.55061 -4.99005
21.0897 -9.61754 -4.95166
21.2217 -9.48002 -5.0453
21.3373 -9.5091 -5.01413
20.9822 -9.56186 -5.01599
20.8714 -9.49133 -5.08166
20.7694 -9.41671 -5.16351
20.6892 -9.32692 -5.22736
20.6288 -9.3233 -5.22068
20.5947 -9.38639 -5.16968
20.554 -9.442 -5.11305
20.4735 -9.41772 -5.13631
20.4112 -9.31447 -5.22672
20.3526 -9.18151 -5.30509
20.2694 -9.1807 -5.29327
20.1867 -9.20296 -5.27722
20.0856 -9.10927 -5.33095
19.988 -9.03063 -5.3611
19.9224 -9.04928 -5.31712
19.8559 -9.02171 -5.31685
19.7998 -8.95879 -5.35318
19.7156 -8.95053 -5.34462
19.6879 -9.04145 -5.23541
19.6198 -8.93214 -5.31496
19.5256 -8.89904 -5.29134
19.4716 -8.97391 -5.18039
19.4056 -9.03493 -5.08353
19.3557 -9.09615 -4.97454
19.3119 -9.18087 -4.85613
19.2348 -9.18013 -4.78564
19.154 -9.21539 -4.70328
18.6875 -9.27264 -4.06737
18.7708 -9.19384 -4.22539
18.8666 -9.1376 -4.42107
18.6256 -9.30657 -3.92516
18.5262 -9.25939 -3.82454
18.4376 -9.20628 -3.73162
18.3438 -9.15137 -3.66158
18.2613 -9.08987 -3.60145
18.1906 -9.02759 -3.55724
17.9796 -9.08699 -3.06474
17.9804 -9.16518 -2.95612
17.9703 -9.21528 -2.8904
18.1074 -8.93239 -3.51239
18.1404 -8.98855 -3.5386
18.0095 -8.8144 -3.46214
17.9863 -8.88463 -3.32933
17.9556 -8.92823 -3.24938
17.973 -8.99823 -3.17114
19.0801 -9.13023 -4.70779
19.0277 -9.15253 -4.61544
18.9954 -9.13698 -4.58784
19.0139 -9.15898 -4.58823
18.9359 -9.07084 -4.59185
17.938 -9.16527 -2.86685
17.8451 -9.13902 -2.70019
17.8274 -9.18734 -2.58057
17.8701 -9.07409 -2.8353
17.7992 -9.23751 -2.4727
17.8 -9.276 -2.37936
17.779 -9.26431 -2.30448
17.7487 -9.2647 -2.22726
17.7155 -9.21039 -2.1884
17.6685 -9.15123 -2.12075
17.6331 -9.1758 -1.99872
17.6261 -9.19948 -1.898
17.5932 -9.13397 -1.88813
17.572 -9.07698 -1.87941
17.5526 -9.06298 -1.83129
17.542 -9.10725 -1.66331
17.5351 -9.03617 -1.76288
17.5548 -9.152 -1.58021
17.5619 -9.1421 -1.49732
17.5742 -9.12735 -1.39613
17.5884 -9.19472 -1.31568
17.6012 -9.26576 -1.23055
17.5896 -9.26343 -1.12597
17.6033 -9.23446 -1.01627
17.6358 -9.26935 -0.881687
17.7031 -9.31548 -0.731722
17.7677 -9.43042 -0.573788
17.8075 -9.5273 -0.45073
17.8279 -9.51506 -0.360335
17.8392 -9.50387 -0.262858
17.8447 -9.51393 -0.162853
17.8159 -9.49724 -0.0815149
17.8113 -9.48736 0.000107884
17.8246 -9.47488 0.0425873
17.8552 -9.47527 0.0803998
17.8699 -9.48097 0.121022
17.8936 -9.45093 0.156494
17.934 -9.41963 0.184921
17.9854 -9.41982 0.246074
18.0388 -9.42116 0.314611
18.0579 -9.45139 0.320259
18.0869 -9.47807 0.307159
18.155 -9.4803 0.361401
18.2322 -9.4807 0.403799
18.6835 -9.45062 0.53497
18.8002 -9.45731 0.541667
18.9163 -9.4465 0.564327
19.0175 -9.44248 0.592858
18.5882 -9.43605 0.527911
18.3102 -9.44347 0.457158
18.3937 -9.41087 0.529515
18.4943 -9.42491 0.529378
20.2296 -9.43691 0.85825
19.5014 -9.44644 0.701102
19.6471 -9.44206 0.74095
19.7854 -9.43004 0.778191
19.1211 -9.42419 0.60943
19.2421 -9.41596 0.650869
19.3663 -9.42839 0.68031
19.9202 -9.42123 0.813475
20.1361 -9.41801 0.84614
20.0374 -9.40854 0.857337
20.3131 -9.42156 0.893674
20.4009 -9.39382 0.936561
20.5175 -9.38597 0.988203
21.6787 -9.68301 0.772811
21.9016 -9.58236 1.01077
21.8569 -9.61295 0.936281
21.8464 -9.64316 0.882136
21.7725 -9.66016 0.828497
21.9788 -9.55408 1.08902
20.896 -9.42569 1.07613
20.9386 -9.45031 1.06903
21.0319 -9.45813 1.08782
20.8499 -9.39061 1.08236
20.715 -9.38109 1.05419
20.6115 -9.37079 1.01671
21.1437 -9.46891 1.1068
21.2483 -9.45427 1.15916
21.3473 -9.42266 1.20994
21.4657 -9.43146 1.24327
21.6133 -9.42941 1.27254
21.7348 -9.45359 1.27984
21.828 -9.46053 1.27675
21.7972 -9.47464 1.22287
21.775 -9.49721 1.19243
21.8377 -9.49536 1.20836
21.9471 -9.49808 1.23782
21.9964 -9.51272 1.20123
22.0642 -9.53251 1.16491
21.9673 -9.63258 0.911158
22.0961 -9.63915 0.955527
22.2513 -9.64221 0.964909
22.5164 -9.63769 0.989193
22.358 -9.68711 0.839022
22.3026 -9.70052 0.767816
22.3702 -9.69822 0.757353
22.4777 -9.71721 0.731792
22.5882 -9.72877 0.695416
22.6946 -9.74735 0.662555
22.8134 -9.75605 0.644217
22.9754 -9.76194 0.648352
22.9504 -9.80798 0.537496
22.9616 -9.847 0.466749
23.0531 -9.86977 0.433628
23.1551 -9.8904 0.407879
23.2653 -9.89361 0.439197
23.4828 -9.89464 0.47558
23.3718 -9.88399 0.478394
23.5943 -9.89117 0.467974
23.6817 -9.93308 0.408558
23.802 -9.98072 0.316208
23.9592 -9.99491 0.294206
24.0827 -10.003 0.29201
24.1205 -10.064 0.17298
24.1494 -10.1045 0.0662346
24.1658 -10.1372 -0.0174791
24.1663 -10.1549 -0.0824034
24.2102 -10.1737 -0.111711
24.2592 -10.1713 -0.162695
24.3146 -10.1858 -0.223273
24.3733 -10.1919 -0.294861
24.3324 -10.2128 -0.400661
24.2935 -10.232 -0.508863
24.2605 -10.2506 -0.608364
24.2391 -10.277 -0.684212
24.2623 -10.2846 -0.743749
24.2735 -10.2821 -0.790665
24.2854 -10.281 -0.852502
24.3104 -10.3047 -0.990842
24.2381 -10.3329 -1.17754
24.2013 -10.3495 -1.27123
24.1633 -10.369 -1.36135
24.1041 -10.3905 -1.51336
23.9852 -10.4019 -1.5775
23.8671 -10.4207 -1.62946
23.9117 -10.4309 -1.75777
23.9579 -10.4257 -1.90616
23.8834 -10.43 -2.10324
23.8449 -10.4222 -2.24221
23.8236 -10.4063 -2.35816
23.8242 -10.415 -2.46046
23.7624 -10.4305 -2.55473
23.7238 -10.4575 -2.65968
23.6592 -10.4663 -2.75068
23.612 -10.4824 -2.8355
23.6047 -10.47 -2.902
23.5925 -10.4577 -2.94099
22.3216 -9.81627 -4.30773
22.1783 -9.78236 -4.40529
22.0289 -9.72786 -4.51498
23.6158 -10.4513 -2.96516
23.5397 -10.4154 -3.08921
23.4661 -10.3926 -3.14947
23.5931 -10.4248 -3.03348
23.3732 -10.3729 -3.23091
23.6297 -10.4383 -2.99173
23.2951 -10.3248 -3.30058
23.2083 -10.2964 -3.372
23.2185 -10.2412 -3.41028
23.2264 -10.1903 -3.45841
23.3063 -9.95252 -3.62562
23.2066 -9.79268 -3.79725
22.9988 -9.74213 -3.96256
22.8891 -9.71585 -4.08159
22.7565 -9.71581 -4.1409
22.5964 -9.70426 -4.23035
22.4632 -9.77261 -4.27156
23.2917 -10.1345 -3.46425
23.3709 -10.0484 -3.48482
21.9188 -9.69123 -4.60954
21.8625 -9.68437 -4.6596
21.8952 -9.62276 -4.70321
21.6172 -9.49695 -4.91195
21.5 -9.54217 -4.91449
21.9776 -9.49958 -4.78779
21.8157 -9.4727 -4.87565
21.7169 -9.46176 -4.91999
21.434 -9.48635 -4.99003
21.1088 -9.44455 -5.10619
21.0428 -9.51 -5.06391
21.2989 -9.39829 -5.09338
21.1814 -9.35392 -5.1639
21.388 -9.43198 -5.06137
20.9396 -9.4439 -5.11315
20.8413 -9.39326 -5.1979
20.7561 -9.3027 -5.25194
20.6831 -9.22614 -5.31123
20.6286 -9.25424 -5.28642
20.595 -9.26372 -5.26407
20.5681 -9.29256 -5.26099
20.5047 -9.31574 -5.20939
20.4373 -9.19214 -5.31471
20.3867 -9.04493 -5.40273
20.2878 -9.04431 -5.41
20.1769 -9.02847 -5.39249
20.0534 -8.9583 -5.43049
19.9539 -8.91953 -5.44335
19.9176 -8.9719 -5.3717
19.8897 -8.99657 -5.34024
19.8614 -8.95137 -5.36395
19.8232 -8.90646 -5.41071
19.7604 -8.86239 -5.40224
19.6694 -8.81927 -5.42218
19.5674 -8.80676 -5.4011
19.4853 -8.76618 -5.38215
19.4411 -8.83885 -5.28162
19.3745 -8.90644 -5.1787
19.3249 -8.99621 -5.05895
19.264 -9.06825 -4.92698
19.1695 -9.09538 -4.82162
18.634 -9.19061 -4.07289
18.5834 -9.23373 -3.95356
18.7844 -9.07807 -4.34941
18.6804 -9.10029 -4.17895
18.8566 -9.02051 -4.51941
18.4921 -9.18725 -3.85881
18.4014 -9.13546 -3.78472
18.3179 -9.07441 -3.7177
18.2409 -9.00941 -3.65881
18.1654 -8.95772 -3.59834
17.9112 -8.99018 -3.06777
17.9252 -9.07151 -2.95813
18.117 -8.86202 -3.60335
18.0663 -8.72927 -3.60569
17.9654 -8.65222 -3.51069
17.907 -8.68152 -3.39494
17.9236 -8.78145 -3.32504
17.9196 -8.84684 -3.24574
17.9118 -8.91151 -3.16293
19.1093 -8.99274 -4.84553
19.0467 -8.99412 -4.76779
19.0163 -9.07417 -4.66596
18.9811 -8.97016 -4.71927
18.908 -8.93292 -4.67224
17.8089 -9.0199 -2.76193
17.7962 -9.06712 -2.65258
17.764 -9.11752 -2.53849
17.8638 -8.97336 -2.95775
17.8156 -8.95243 -2.86464
17.7565 -9.18493 -2.4149
17.7277 -9.17297 -2.3154
17.6681 -9.08976 -2.29156
17.6281 -9.0131 -2.23991
17.6072 -9.06059 -2.09898
17.6084 -9.09809 -1.98372
17.5761 -9.03704 -1.95746
17.563 -8.98907 -1.91901
17.5217 -8.95784 -1.86883
17.536 -9.00489 -1.68398
17.5502 -9.07817 -1.58374
17.4983 -8.91694 -1.79419
17.5479 -9.05524 -1.48522
17.5513 -9.03704 -1.37468
17.567 -9.12145 -1.29676
17.5921 -9.18554 -1.21501
17.5772 -9.16359 -1.12803
17.5668 -9.09949 -1.06568
17.5992 -9.14204 -0.962413
17.6351 -9.16845 -0.851072
17.668 -9.1807 -0.729487
17.7324 -9.31381 -0.600314
17.7801 -9.42795 -0.474112
17.7969 -9.42949 -0.380264
17.8057 -9.42974 -0.304356
17.8332 -9.4674 -0.223362
17.8357 -9.46346 -0.163274
17.7974 -9.42484 -0.119743
17.7847 -9.43692 -0.0430655
17.8052 -9.43519 0.0161525
17.8276 -9.44259 0.0649199
17.8539 -9.4449 0.115353
17.8757 -9.41324 0.141846
17.9068 -9.3756 0.166378
17.9748 -9.38446 0.224632
18.0333 -9.38078 0.292641
18.0922 -9.37224 0.365408
18.113 -9.41202 0.373355
18.1366 -9.44642 0.370771
18.2172 -9.45064 0.424258
18.6672 -9.41903 0.556112
18.7532 -9.42173 0.559099
18.8463 -9.42067 0.575527
18.9416 -9.41336 0.596437
19.038 -9.40348 0.623153
18.5881 -9.3973 0.558867
18.288 -9.40583 0.480768
18.3381 -9.36948 0.552503
18.4292 -9.36695 0.587799
18.5008 -9.38351 0.571553
20.2195 -9.40394 0.877573
19.4408 -9.42022 0.721203
19.5625 -9.41678 0.733483
19.6867 -9.40706 0.762603
19.8098 -9.40648 0.811644
19.141 -9.39338 0.654189
19.243 -9.38416 0.684009
19.3344 -9.40893 0.702455
19.9354 -9.38808 0.847711
20.1381 -9.38636 0.870408
20.0499 -9.37292 0.881938
20.2828 -9.38621 0.915754
20.329 -9.35777 0.934533
20.4273 -9.35382 0.972603
20.5394 -9.34403 1.01184
22.0833 -9.58325 1.06322
22.0087 -9.61061 0.982102
22.1593 -9.56454 1.14408
20.9837 -9.39799 1.11637
21.017 -9.42979 1.10355
21.1328 -9.43807 1.12984
20.7993 -9.35186 1.09595
20.943 -9.36133 1.13066
20.6619 -9.34019 1.05052
21.228 -9.42005 1.18431
21.3289 -9.3847 1.22636
21.4351 -9.40035 1.26663
21.5492 -9.39844 1.29162
21.6726 -9.39204 1.33255
21.7643 -9.41062 1.3257
21.86 -9.43391 1.32534
21.943 -9.45246 1.31592
21.8972 -9.47735 1.26385
22.0128 -9.47399 1.29688
22.0745 -9.49633 1.27043
22.1396 -9.5187 1.23996
22.2204 -9.53702 1.21284
22.1866 -9.60738 1.0247
22.3956 -9.60141 1.0659
22.6068 -9.59118 1.13708
22.7576 -9.58954 1.14095
22.8299 -9.61349 1.08649
22.7302 -9.64441 0.948632
22.5123 -9.68593 0.849402
22.659 -9.689 0.817069
22.7634 -9.70842 0.770862
22.8355 -9.72334 0.729227
22.9381 -9.72375 0.723186
23.0906 -9.71824 0.762698
23.1741 -9.74399 0.717457
23.0966 -9.79594 0.612373
23.0615 -9.83452 0.514586
23.1645 -9.8664 0.481049
23.2973 -9.84824 0.522238
23.4332 -9.86156 0.560605
23.5687 -9.85449 0.557128
23.6904 -9.88184 0.53464
23.8086 -9.9106 0.48174
23.926 -9.93268 0.433
24.0357 -9.9435 0.416839
24.1839 -10.0043 0.290808
24.1325 -9.94543 0.420165
24.2247 -10.069 0.173162
24.2474 -10.1099 0.0673876
24.2436 -10.13 -0.0271082
24.3092 -10.1424 -0.0632458
24.3659 -10.1634 -0.121036
24.4152 -10.1652 -0.193844
24.4648 -10.1812 -0.278977
24.4307 -10.2036 -0.378332
24.392 -10.2249 -0.48091
24.3505 -10.2464 -0.583726
24.3063 -10.2656 -0.672796
24.3172 -10.2646 -0.756647
24.3699 -10.2699 -0.809669
24.4312 -10.2628 -0.871416
24.4143 -10.2813 -1.02968
24.3374 -10.2977 -1.16713
24.2556 -10.3403 -1.29067
24.2218 -10.3569 -1.43548
24.171 -10.3789 -1.5963
24.0402 -10.4075 -1.69037
24.1231 -10.4029 -1.75581
24.1017 -10.3918 -1.89233
24.0055 -10.4081 -2.02569
23.9503 -10.4056 -2.15183
23.9272 -10.3949 -2.26713
23.9141 -10.3822 -2.37349
23.9172 -10.3887 -2.4608
23.8499 -10.4071 -2.53807
23.8167 -10.4421 -2.61405
23.8113 -10.4472 -2.68479
23.7517 -10.4493 -2.74094
23.7131 -10.4507 -2.80087
23.6942 -10.4547 -2.86117
23.6668 -10.4527 -2.91675
22.3097 -9.71838 -4.39239
22.1556 -9.65848 -4.51587
22.0167 -9.62212 -4.64386
23.6947 -10.4314 -2.94827
23.6437 -10.3915 -3.05055
23.5819 -10.367 -3.10804
23.5022 -10.3395 -3.1696
23.6825 -10.4083 -2.99635
23.4172 -10.3055 -3.24592
23.3234 -10.274 -3.32734
23.3349 -10.2139 -3.3931
23.47 -9.95527 -3.52286
23.4268 -9.84262 -3.64269
23.4217 -9.70506 -3.74557
23.2949 -9.64107 -3.89325
23.1237 -9.65795 -3.96453
22.9789 -9.63703 -4.06118
22.8439 -9.63033 -4.15577
22.7062 -9.6332 -4.24477
22.451 -9.66906 -4.3461
22.5741 -9.63489 -4.32373
23.4287 -10.1414 -3.38111
23.5258 -10.0491 -3.4088
21.6611 -9.40494 -4.97844
21.5458 -9.44536 -4.986
22.1788 -9.41496 -4.74364
22.0565 -9.34872 -4.87009
21.9037 -9.37232 -4.91793
22.1509 -9.53813 -4.63719
21.7769 -9.38385 -4.96496
21.4758 -9.38486 -5.05529
21.0583 -9.33841 -5.18612
21.0045 -9.4118 -5.16641
21.3962 -9.31679 -5.1278
21.296 -9.26218 -5.18848
21.1979 -9.21768 -5.24489
21.0953 -9.25023 -5.2406
20.9056 -9.34337 -5.20749
20.8232 -9.26906 -5.26932
20.7469 -9.19316 -5.34106
20.6749 -9.1369 -5.40624
20.6123 -9.1568 -5.36128
20.577 -9.21003 -5.32082
20.5166 -9.19966 -5.32671
20.4689 -9.07184 -5.42582
20.4296 -8.91646 -5.51532
20.3305 -8.90376 -5.52521
20.2281 -8.88233 -5.53055
20.1161 -8.83727 -5.52432
19.9976 -8.81289 -5.52282
19.9014 -8.81256 -5.50692
19.8802 -8.89501 -5.4265
19.8199 -8.82726 -5.46877
19.7455 -8.76328 -5.48294
19.6794 -8.70173 -5.50239
19.6141 -8.69184 -5.47256
19.5287 -8.67166 -5.47039
19.4553 -8.63199 -5.45975
19.4102 -8.71335 -5.37138
19.3627 -8.77508 -5.28305
19.3089 -8.81059 -5.20924
19.295 -8.89322 -5.1199
19.2443 -8.95807 -5.03201
19.1774 -8.98422 -4.94247
18.5549 -9.11607 -4.03697
18.5429 -9.17649 -3.96757
18.707 -9.01501 -4.30798
18.7857 -8.97781 -4.46161
18.5657 -9.00637 -4.13149
18.8339 -8.90275 -4.61295
18.4651 -9.12815 -3.91028
18.38 -9.06873 -3.83972
18.3032 -9.00303 -3.77576
18.2139 -8.92164 -3.72574
17.8615 -8.89246 -3.06061
18.1662 -8.79895 -3.72944
18.1161 -8.65731 -3.75322
17.9957 -8.5952 -3.635
17.9317 -8.53312 -3.54538
17.8892 -8.55348 -3.44704
17.8281 -8.58854 -3.34068
17.8587 -8.69403 -3.27793
17.8786 -8.77184 -3.23382
17.862 -8.8249 -3.16029
19.1041 -8.87567 -4.96716
19.0372 -8.91191 -4.88429
18.9947 -8.92123 -4.81674
18.9399 -8.87113 -4.80169
18.8593 -8.79251 -4.78153
17.7657 -8.92303 -2.80747
17.7627 -8.97958 -2.72228
17.7467 -8.98896 -2.62922
17.7066 -9.0308 -2.47575
17.8018 -8.88418 -2.96747
17.7706 -8.87358 -2.88966
17.652 -8.95049 -2.39806
17.6126 -8.88511 -2.3335
17.5894 -8.93874 -2.18966
17.5758 -8.99023 -2.06376
17.5482 -8.93071 -2.02137
17.5155 -8.88012 -1.9736
17.4959 -8.82737 -1.9174
17.5115 -8.88049 -1.70445
17.5453 -8.97434 -1.58853
17.4731 -8.76209 -1.84499
17.5341 -8.94535 -1.47415
17.5055 -8.92188 -1.34783
17.5316 -9.04266 -1.27096
17.5492 -9.12079 -1.21464
17.5198 -9.06547 -1.16203
17.5184 -8.96803 -1.11135
17.5556 -9.02697 -1.01195
17.5934 -9.07038 -0.930428
17.6097 -9.06035 -0.849859
17.6145 -9.04277 -0.721797
17.6923 -9.20415 -0.595229
17.7526 -9.32956 -0.487591
17.7726 -9.35234 -0.388058
17.7872 -9.37118 -0.312593
17.7981 -9.42416 -0.249759
17.8191 -9.45163 -0.205449
17.7928 -9.41613 -0.193368
17.749 -9.35787 -0.184171
17.7596 -9.378 -0.0934188
17.7619 -9.37719 -0.0202296
17.7911 -9.39586 0.0441664
17.8309 -9.4018 0.100274
17.8563 -9.36519 0.113606
17.8746 -9.32207 0.142107
17.929 -9.33507 0.215796
18.0005 -9.33536 0.282761
18.0704 -9.33227 0.354231
18.1431 -9.32729 0.422516
18.1652 -9.37121 0.43757
18.1903 -9.41397 0.439089
18.6654 -9.39847 0.593887
18.7273 -9.40967 0.583879
18.7966 -9.39382 0.580192
18.8807 -9.38007 0.588023
18.9711 -9.37391 0.615575
19.0674 -9.35886 0.643743
18.5938 -9.35626 0.594416
18.2489 -9.36566 0.496891
18.3052 -9.31296 0.5523
18.3868 -9.32993 0.58981
18.4551 -9.32198 0.594
18.5074 -9.33937 0.600121
20.2074 -9.38087 0.8994
19.5033 -9.39616 0.745511
19.4071 -9.39604 0.730198
19.6034 -9.39701 0.760468
19.7 -9.38803 0.796925
19.825 -9.36916 0.832695
19.17 -9.35926 0.679986
19.2654 -9.35912 0.691675
19.3357 -9.37971 0.721158
19.9517 -9.35194 0.868135
20.1527 -9.3572 0.895042
20.0778 -9.33054 0.897314
20.2426 -9.35357 0.905561
20.2768 -9.33168 0.928517
20.3459 -9.32294 0.958296
20.4456 -9.30547 1.00414
20.5826 -9.30298 1.04513
22.3042 -9.57573 1.12226
22.3309 -9.54434 1.19467
21.0801 -9.36641 1.1596
21.108 -9.40517 1.15105
20.9042 -9.31376 1.14151
20.7359 -9.29327 1.09884
21.0476 -9.32641 1.17951
21.2081 -9.37531 1.19606
21.3287 -9.34015 1.26142
21.4264 -9.36343 1.28571
21.5084 -9.37421 1.29479
21.5977 -9.36393 1.33188
21.7057 -9.353 1.37208
21.796 -9.37479 1.36956
21.8893 -9.39273 1.36526
21.9776 -9.41874 1.36258
22.0593 -9.44129 1.35015
22.1332 -9.47023 1.3301
22.2023 -9.48701 1.29934
22.2757 -9.50694 1.27185
22.3615 -9.52266 1.25299
22.5129 -9.56854 1.16384
22.6813 -9.55799 1.22566
22.7808 -9.55546 1.21653
22.8804 -9.56339 1.22475
22.9396 -9.57249 1.19657
23.0777 -9.58436 1.17663
22.977 -9.62384 1.05166
22.9244 -9.66143 0.913215
22.9196 -9.69325 0.810394
22.9228 -9.71137 0.767662
23.0188 -9.69835 0.800229
23.1804 -9.6902 0.855739
23.2715 -9.69987 0.820047
23.3612 -9.72643 0.776164
23.2702 -9.77182 0.669835
23.2022 -9.81952 0.569243
23.3593 -9.81768 0.623061
23.5172 -9.81364 0.650827
23.6641 -9.82463 0.650879
23.7944 -9.84952 0.620298
23.909 -9.8847 0.574738
23.9933 -9.90306 0.525141
24.0704 -9.88895 0.540591
24.2233 -9.94316 0.412593
24.2847 -10.0001 0.28113
24.1589 -9.89105 0.564866
24.3134 -10.0677 0.157725
24.3385 -10.1021 0.0495274
24.4018 -10.1176 -0.0195301
24.4662 -10.1348 -0.0883667
24.5016 -10.1598 -0.189099
24.5393 -10.183 -0.285453
24.5107 -10.1986 -0.377632
24.4788 -10.2094 -0.479289
24.4351 -10.2327 -0.584528
24.3782 -10.2535 -0.682397
24.4471 -10.2465 -0.713846
24.5258 -10.2498 -0.761853
24.4971 -10.2678 -0.932115
24.4781 -10.2817 -1.0562
24.4231 -10.2999 -1.16496
24.3433 -10.3187 -1.32339
24.2914 -10.3494 -1.49609
24.2497 -10.3738 -1.6402
24.2218 -10.3812 -1.77141
24.214 -10.3771 -1.88306
24.1155 -10.3813 -1.99555
24.0408 -10.3814 -2.08905
24.0302 -10.3738 -2.18182
24.0158 -10.3682 -2.287
24.0004 -10.3685 -2.3827
23.9922 -10.384 -2.45327
23.9366 -10.3948 -2.52103
23.8869 -10.4231 -2.58106
23.882 -10.4227 -2.63361
23.8326 -10.4298 -2.73124
23.877 -10.4167 -2.68032
23.7882 -10.4421 -2.77763
23.7821 -10.4271 -2.81454
23.7824 -10.4034 -2.87513
22.3178 -9.59555 -4.48784
23.7789 -10.3783 -2.93608
23.754 -10.3495 -2.99944
23.7005 -10.3227 -3.0604
23.6299 -10.2977 -3.11604
23.5516 -10.2674 -3.18674
23.4611 -10.2183 -3.27956
23.6071 -9.93474 -3.43899
23.5474 -9.85758 -3.53561
23.5668 -9.75918 -3.62795
23.5912 -9.6269 -3.72254
23.4542 -9.56842 -3.84406
23.3423 -9.52131 -3.97552
23.1935 -9.5649 -4.02708
23.0657 -9.57465 -4.07148
22.9449 -9.54162 -4.16177
22.7878 -9.53684 -4.29288
22.6365 -9.57261 -4.34197
22.4759 -9.59302 -4.40577
22.5546 -9.58453 -4.36597
23.5698 -10.1304 -3.30458
23.6653 -10.0259 -3.34051
21.7177 -9.31265 -5.04332
21.5937 -9.34261 -5.05419
22.3143 -9.46886 -4.61
22.3862 -9.34126 -4.68252
22.2262 -9.28637 -4.81423
22.1168 -9.234 -4.93261
21.9759 -9.27264 -4.98066
21.8383 -9.27762 -5.02199
21.5218 -9.25871 -5.13819
20.9981 -9.25534 -5.2691
20.9714 -9.31795 -5.21949
21.432 -9.13663 -5.26536
21.2889 -9.1371 -5.30628
21.2033 -9.1191 -5.32354
21.1227 -9.1506 -5.31401
21.0243 -9.16181 -5.32128
20.9047 -9.24562 -5.27176
20.8221 -9.14511 -5.36714
20.7319 -9.08608 -5.43529
20.6736 -9.03295 -5.45274
20.6165 -9.05336 -5.44869
20.5458 -9.09247 -5.43073
20.5108 -8.94709 -5.53091
20.4744 -8.79664 -5.63804
20.3758 -8.77015 -5.64037
20.2708 -8.73844 -5.63922
20.158 -8.70386 -5.64319
20.0233 -8.67172 -5.65215
19.9171 -8.7024 -5.60265
19.8178 -8.71351 -5.55484
19.7318 -8.67071 -5.54741
19.6866 -8.64269 -5.5424
19.6478 -8.62774 -5.55096
19.5814 -8.57434 -5.56633
19.5005 -8.54238 -5.5436
19.3889 -8.57489 -5.43828
19.429 -8.49976 -5.53093
19.3347 -8.65571 -5.36049
19.2893 -8.71445 -5.28437
19.2564 -8.75041 -5.21961
19.2512 -8.81486 -5.15653
19.2405 -8.86713 -5.07866
19.1752 -8.88864 -5.03725
18.4562 -9.05672 -3.96339
18.7401 -8.92817 -4.41802
18.6573 -8.93829 -4.30677
18.776 -8.88553 -4.55066
18.5669 -8.89047 -4.23369
18.4624 -8.90018 -4.08388
18.4316 -8.97639 -3.98106
18.7967 -8.81342 -4.66963
18.3673 -9.00747 -3.88615
18.3102 -8.94468 -3.84785
18.2691 -8.85693 -3.85567
17.8153 -8.79902 -3.06294
18.2362 -8.74792 -3.86193
18.2059 -8.64967 -3.88569
18.1306 -8.5541 -3.85229
18.0307 -8.50142 -3.752
17.9413 -8.44262 -3.64356
17.8665 -8.43026 -3.52826
17.8081 -8.45915 -3.40813
17.7765 -8.50728 -3.27905
17.7966 -8.62884 -3.21499
17.8185 -8.73718 -3.17293
19.1325 -8.78999 -5.06631
19.0662 -8.7463 -5.03466
19.0171 -8.81258 -4.96544
18.9787 -8.84164 -4.89215
18.9284 -8.7681 -4.89798
18.8803 -8.67218 -4.92613
18.8096 -8.65311 -4.85281
18.7811 -8.72624 -4.7559
17.7281 -8.83289 -2.86084
17.7303 -8.89658 -2.74688
17.6945 -8.89175 -2.65253
17.6673 -8.87703 -2.55012
17.7574 -8.80326 -2.96646
17.6285 -8.83495 -2.47481
17.5942 -8.78131 -2.4094
17.5837 -8.81962 -2.26949
17.5565 -8.8736 -2.13738
17.5316 -8.80913 -2.08578
17.5045 -8.74637 -2.03403
17.4687 -8.68599 -1.98754
17.4905 -8.74239 -1.71563
17.5179 -8.84772 -1.58952
17.4593 -8.62879 -1.83668
17.4538 -8.60566 -1.95249
17.5076 -8.81813 -1.46857
17.4841 -8.78086 -1.3587
17.5042 -8.83487 -1.2656
17.5158 -8.95042 -1.22363
17.4964 -8.85994 -1.17164
17.4986 -8.85448 -1.0979
17.5206 -8.92169 -1.03488
17.5707 -8.97778 -0.954667
17.5749 -8.9456 -0.876745
17.547 -8.90833 -0.819921
17.5591 -8.93219 -0.714038
17.6121 -9.02219 -0.611077
17.6516 -9.13365 -0.554023
17.7073 -9.25574 -0.467217
17.7449 -9.29694 -0.352235
17.765 -9.35896 -0.259499
17.7168 -9.28311 -0.28603
17.7011 -9.28035 -0.213153
17.7355 -9.31914 -0.139142
17.7411 -9.33024 -0.0858029
17.7347 -9.31293 -0.0483588
17.7765 -9.33766 0.00622855
17.8069 -9.35019 0.0703574
17.8279 -9.30824 0.0837542
17.8451 -9.25216 0.101327
17.9098 -9.26729 0.170358
17.9725 -9.27872 0.256414
18.0425 -9.27639 0.336639
18.1132 -9.27554 0.414737
18.2234 -9.32479 0.483058
18.1954 -9.276 0.469131
18.6862 -9.34982 0.614032
18.7464 -9.38141 0.60263
18.8243 -9.36036 0.598799
18.9097 -9.34252 0.61287
19.0089 -9.33475 0.632334
19.1168 -9.33121 0.658461
18.5608 -9.30051 0.597474
18.6346 -9.29819 0.609941
18.2649 -9.26558 0.520608
18.3256 -9.24638 0.558403
18.3775 -9.27105 0.582641
18.4417 -9.28116 0.596048
18.5003 -9.29224 0.610983
19.4481 -9.37023 0.750282
19.5794 -9.37656 0.777512
19.7044 -9.36069 0.82136
19.8435 -9.34196 0.857961
19.2315 -9.33482 0.700022
19.3553 -9.34301 0.72426
19.9613 -9.32012 0.883942
20.1965 -9.32618 0.913744
20.0582 -9.28886 0.912536
20.1642 -9.29388 0.918205
20.2575 -9.30767 0.944829
20.3305 -9.28324 0.976508
20.3976 -9.25204 1.00542
20.501 -9.26479 1.04035
20.6127 -9.26461 1.08368
22.4653 -9.55204 1.20377
22.4615 -9.53685 1.24861
21.1845 -9.33296 1.21186
20.8731 -9.25722 1.1576
21.0277 -9.27953 1.18782
20.7273 -9.23697 1.12572
21.1608 -9.29489 1.23425
21.2939 -9.29698 1.26913
21.4215 -9.30145 1.31816
21.465 -9.32334 1.3176
21.533 -9.33529 1.30987
21.6268 -9.3301 1.36424
21.7271 -9.31184 1.39971
21.8183 -9.33154 1.40064
21.9085 -9.35554 1.40265
21.9979 -9.38236 1.4097
22.088 -9.40604 1.39887
22.1758 -9.43572 1.388
22.253 -9.45913 1.35931
22.3202 -9.48885 1.33204
22.3952 -9.50355 1.30512
22.475 -9.51629 1.29245
22.6035 -9.55277 1.24207
22.7269 -9.52871 1.28989
22.823 -9.53528 1.2931
22.9214 -9.54693 1.2903
23.001 -9.54925 1.27736
23.1001 -9.54991 1.26166
23.2367 -9.56067 1.277
23.2725 -9.57473 1.21726
23.18 -9.59997 1.13208
23.1359 -9.61885 1.03595
23.1691 -9.65115 0.976015
23.0783 -9.67586 0.883846
23.2574 -9.6591 0.939485
23.3538 -9.67472 0.912353
23.4471 -9.69143 0.881629
23.536 -9.72211 0.834381
23.4461 -9.76275 0.719902
23.613 -9.76411 0.752944
23.7599 -9.78608 0.752055
23.8866 -9.82117 0.711986
23.9914 -9.84773 0.639305
24.0736 -9.83928 0.675063
24.2452 -9.91885 0.524827
24.2936 -9.96048 0.412474
24.3463 -9.99573 0.333589
24.3611 -10.0325 0.234149
24.1388 -9.83039 0.703758
24.2052 -9.85814 0.648837
24.3885 -10.069 0.148053
24.4292 -10.0974 0.0854647
24.4827 -10.1109 0.0279647
24.5373 -10.116 -0.021538
24.5427 -10.1426 -0.115979
24.567 -10.1709 -0.20498
24.5996 -10.1919 -0.308534
24.5765 -10.1995 -0.397841
24.5492 -10.2103 -0.492923
24.5123 -10.2154 -0.601537
24.5773 -10.2164 -0.622493
24.6025 -10.2392 -0.737375
24.57 -10.2459 -0.871594
24.5384 -10.2673 -1.0144
24.4991 -10.2876 -1.14349
24.4471 -10.3087 -1.27201
24.3942 -10.3292 -1.40857
24.3576 -10.346 -1.53665
24.3338 -10.3534 -1.65404
24.3178 -10.3607 -1.76856
24.3115 -10.3595 -1.8765
24.2246 -10.3715 -1.99012
24.1301 -10.3686 -2.09484
24.1188 -10.3525 -2.20429
24.0913 -10.3437 -2.3093
24.0665 -10.3585 -2.39937
24.028 -10.382 -2.48287
23.96 -10.407 -2.56859
23.9545 -10.3988 -2.62664
23.8605 -10.4145 -2.76258
23.9202 -10.4035 -2.69595
23.8811 -10.4007 -2.8038
23.91 -10.3695 -2.82797
23.8926 -10.3327 -2.86457
22.4364 -9.51683 -4.50165
23.8834 -10.293 -2.92962
23.8344 -10.2513 -3.01012
23.77 -10.2355 -3.08276
23.6865 -10.22 -3.14212
23.6123 -10.1811 -3.20321
23.7541 -9.90041 -3.39167
23.6723 -9.81255 -3.49771
23.7181 -9.68131 -3.59111
23.752 -9.53559 -3.6947
23.6172 -9.48866 -3.82583
23.4814 -9.45182 -3.94325
23.2267 -9.44768 -4.09255
23.3673 -9.41848 -4.04288
23.0781 -9.49068 -4.15484
22.9194 -9.43947 -4.27502
22.7557 -9.42228 -4.39451
22.6482 -9.49076 -4.41083
22.542 -9.53687 -4.41595
23.6995 -10.0888 -3.23025
23.8045 -9.98795 -3.29023
21.7676 -9.20782 -5.09442
21.6588 -9.23936 -5.14165
22.4715 -9.42289 -4.56683
22.5765 -9.26104 -4.65782
22.4131 -9.23256 -4.7801
22.5798 -9.34126 -4.57841
22.2727 -9.18108 -4.8845
22.1672 -9.12431 -4.98007
22.0266 -9.16345 -5.02107
21.9131 -9.19813 -5.06159
21.8351 -9.1834 -5.0728
21.5888 -9.1286 -5.22414
20.926 -9.16067 -5.34574
21.4534 -8.94432 -5.39549
21.3518 -8.99885 -5.39579
21.5456 -8.98187 -5.31991
21.2438 -9.02057 -5.40193
21.1506 -9.04265 -5.39617
21.0531 -9.05851 -5.39782
20.9547 -9.06937 -5.42707
20.7775 -9.01207 -5.47973
20.8631 -9.04807 -5.44416
20.7066 -8.96513 -5.50387
20.6329 -8.94545 -5.51841
20.5684 -8.95152 -5.53332
20.5445 -8.82882 -5.64157
20.5039 -8.68019 -5.74378
20.4296 -8.63585 -5.74004
20.321 -8.61351 -5.75602
20.2045 -8.58421 -5.76145
20.0833 -8.54909 -5.76165
19.9722 -8.50324 -5.76308
19.9156 -8.57583 -5.6892
19.8443 -8.60721 -5.64354
19.7622 -8.61261 -5.61654
19.6939 -8.61278 -5.59567
19.644 -8.55576 -5.62867
19.6062 -8.47586 -5.65606
19.5337 -8.46982 -5.6381
19.4687 -8.42955 -5.62196
19.353 -8.45829 -5.52567
19.307 -8.53029 -5.43053
19.4008 -8.38636 -5.61862
19.2532 -8.60553 -5.34177
19.2159 -8.67599 -5.26131
19.207 -8.7396 -5.18169
19.1957 -8.80577 -5.10759
18.7321 -8.8606 -4.50952
18.6988 -8.88568 -4.40952
18.6464 -8.85536 -4.36215
18.7656 -8.81753 -4.59723
18.5862 -8.79336 -4.33356
18.483 -8.80661 -4.20828
18.3635 -8.91065 -3.94876
18.3539 -8.79483 -4.03567
18.3678 -8.9595 -3.91135
18.7595 -8.7578 -4.66137
17.7576 -8.69694 -3.07768
18.2686 -8.69489 -3.9847
18.2431 -8.63966 -3.96206
18.2152 -8.57803 -3.9513
18.0685 -8.42325 -3.86761
18.1556 -8.47835 -3.95112
17.9621 -8.29943 -3.80384
17.8634 -8.28806 -3.6424
17.7897 -8.28411 -3.50346
17.7439 -8.37347 -3.36101
17.7176 -8.43899 -3.23124
17.7397 -8.56766 -3.15534
19.1532 -8.74169 -5.14342
19.1007 -8.69514 -5.12573
19.0325 -8.65441 -5.11198
18.9979 -8.7088 -5.02373
18.9696 -8.76321 -4.96003
18.9387 -8.68628 -4.99472
18.9011 -8.59312 -5.03215
18.8217 -8.57891 -4.9707
18.7473 -8.54773 -4.85526
18.7417 -8.64049 -4.76931
18.7346 -8.70138 -4.70667
17.7154 -8.7297 -2.94115
17.6883 -8.78136 -2.80003
17.6577 -8.78666 -2.6795
17.6248 -8.79158 -2.59058
17.6002 -8.74228 -2.53686
17.5722 -8.70198 -2.46942
17.5574 -8.71905 -2.35237
17.5391 -8.75687 -2.2152
17.4989 -8.68613 -2.16233
17.4741 -8.61053 -2.11051
17.4552 -8.54072 -2.06319
17.4687 -8.60983 -1.72456
17.4899 -8.69811 -1.58682
17.4334 -8.50817 -1.94066
17.4483 -8.51322 -1.83549
17.4262 -8.49441 -2.02849
17.4834 -8.6929 -1.44681
17.4748 -8.66376 -1.33804
17.4672 -8.72605 -1.265
17.4681 -8.76471 -1.19168
17.473 -8.78035 -1.12272
17.4775 -8.78666 -1.07134
17.5119 -8.82949 -1.03546
17.5317 -8.88649 -0.968027
17.5234 -8.86477 -0.904705
17.5214 -8.84943 -0.861936
17.5046 -8.8481 -0.807573
17.5061 -8.83763 -0.694125
17.5658 -8.95783 -0.604339
17.5947 -9.02116 -0.557599
17.6309 -9.07912 -0.506593
17.6796 -9.19529 -0.41379
17.6614 -9.20765 -0.305491
17.7048 -9.2704 -0.153957
17.6802 -9.20648 -0.220277
17.7287 -9.3013 -0.117714
17.7202 -9.28103 -0.104086
17.7131 -9.2437 -0.0844221
17.7533 -9.27024 -0.0302012
17.7893 -9.29095 0.0231613
17.8123 -9.24096 0.0234153
17.8208 -9.17354 0.0429156
17.8831 -9.18557 0.110302
17.9486 -9.18908 0.205984
18.029 -9.2098 0.297034
18.0996 -9.19574 0.385361
18.1664 -9.20998 0.465885
18.2412 -9.21309 0.50194
18.7143 -9.29393 0.625816
18.7667 -9.33569 0.611976
18.849 -9.3194 0.618762
18.946 -9.29825 0.638496
19.0663 -9.29636 0.649607
19.1863 -9.29261 0.696963
18.5329 -9.25846 0.604268
18.5884 -9.24664 0.60644
18.6659 -9.22834 0.628067
18.3008 -9.20733 0.526007
18.3427 -9.19461 0.554216
18.3757 -9.20801 0.584572
18.4278 -9.22279 0.602127
18.4856 -9.24085 0.617576
19.5404 -9.32092 0.783463
19.7479 -9.32227 0.850436
19.8693 -9.31252 0.876643
19.3306 -9.30324 0.73293
19.9537 -9.28487 0.898227
20.1376 -9.25449 0.920436
20.0452 -9.24846 0.907324
20.2334 -9.26871 0.956005
20.2987 -9.23427 0.974419
20.3497 -9.2009 1.00794
20.4444 -9.22635 1.04302
20.5333 -9.22607 1.06681
20.6111 -9.20964 1.09655
22.553 -9.5468 1.25832
22.5601 -9.52668 1.29199
20.8447 -9.19708 1.16359
21.0135 -9.22295 1.22139
21.1563 -9.24771 1.24438
20.7066 -9.19517 1.14198
21.2771 -9.25489 1.28081
21.3941 -9.26322 1.32965
21.5142 -9.26506 1.37478
21.5389 -9.29199 1.35679
21.559 -9.31553 1.35264
21.6393 -9.29561 1.38034
21.7334 -9.27555 1.42476
21.8306 -9.28874 1.42912
21.9174 -9.32065 1.44413
22.0087 -9.33718 1.43998
22.1008 -9.36674 1.44087
22.1987 -9.3913 1.43087
22.3082 -9.42138 1.41353
22.3665 -9.45442 1.37868
22.4277 -9.48077 1.35564
22.4984 -9.50091 1.337
22.556 -9.51486 1.32493
22.6436 -9.53269 1.29393
22.7309 -9.50733 1.33395
22.83 -9.5186 1.3497
22.965 -9.51009 1.36968
23.0569 -9.51992 1.3401
23.1128 -9.53956 1.32277
23.2162 -9.54156 1.33199
23.3438 -9.53241 1.33895
23.3776 -9.55169 1.28248
23.3351 -9.59333 1.17682
23.3949 -9.57121 1.23219
23.2706 -9.60571 1.1082
23.2897 -9.62212 1.05339
23.3164 -9.63 1.00489
23.4075 -9.63845 0.99393
23.5058 -9.64861 0.973934
23.5985 -9.67133 0.945619
23.7038 -9.71567 0.888451
23.8458 -9.74854 0.856815
23.974 -9.79146 0.796693
24.0758 -9.79622 0.784213
24.2781 -9.88131 0.586342
24.3009 -9.92431 0.48975
24.343 -9.95639 0.419498
24.3801 -9.98304 0.356613
24.3951 -10.024 0.288819
24.4119 -10.0533 0.218822
24.123 -9.80445 0.774695
24.1609 -9.81387 0.764864
24.2378 -9.82542 0.744689
24.4467 -10.0776 0.174069
24.4925 -10.0779 0.120156
24.5406 -10.0892 0.0748956
24.5958 -10.0941 0.0334121
24.5878 -10.1198 -0.0739564
24.5862 -10.1315 -0.152891
24.6171 -10.1453 -0.231891
24.6478 -10.164 -0.348025
24.6365 -10.1943 -0.438683
24.6066 -10.2093 -0.525983
24.6252 -10.2107 -0.651029
24.6278 -10.2113 -0.729483
24.6236 -10.2153 -0.815745
24.6084 -10.2406 -0.970979
24.5653 -10.2683 -1.11656
24.5204 -10.2981 -1.23757
24.4745 -10.3029 -1.35641
24.4346 -10.326 -1.4566
24.4248 -10.3216 -1.54112
24.4264 -10.3296 -1.64942
24.4013 -10.3415 -1.77957
24.3889 -10.3154 -1.8816
24.3175 -10.329 -1.98278
24.2288 -10.3331 -2.10964
24.1834 -10.3339 -2.24407
24.1431 -10.3375 -2.33909
24.12 -10.3373 -2.41674
24.0677 -10.3763 -2.52295
24.0289 -10.3733 -2.62001
23.973 -10.3767 -2.71349
23.9658 -10.3554 -2.76704
23.9705 -10.3486 -2.79711
23.9886 -10.3252 -2.8145
24.0695 -10.2389 -2.845
22.5348 -9.4693 -4.47744
23.9899 -10.1627 -2.95401
23.938 -10.1131 -3.05898
23.8199 -10.1399 -3.12401
23.7333 -10.1485 -3.17388
23.8482 -9.75907 -3.46267
23.8943 -9.858 -3.33391
23.877 -9.60058 -3.56809
23.9183 -9.43161 -3.66358
23.7723 -9.38273 -3.79558
23.6257 -9.33593 -3.93958
23.4659 -9.35667 -4.03708
23.2878 -9.36189 -4.14361
23.0837 -9.35862 -4.27064
23.3871 -9.36664 -4.09655
22.8569 -9.34917 -4.40457
22.7101 -9.35393 -4.48682
22.615 -9.4118 -4.49298
23.8242 -10.055 -3.19214
23.9336 -9.94211 -3.24546
21.8146 -9.14627 -5.11705
21.7431 -9.09228 -5.18095
22.7354 -9.28751 -4.53234
22.7656 -9.19992 -4.59506
22.5827 -9.16782 -4.7269
22.4396 -9.13163 -4.84142
22.3294 -9.08528 -4.95417
22.231 -9.01988 -5.02845
22.084 -9.05857 -5.06745
21.9496 -9.09861 -5.11044
21.8632 -9.14111 -5.09744
21.8357 -9.15712 -5.09655
21.676 -8.98814 -5.29144
21.4624 -8.82211 -5.46767
21.3885 -8.85994 -5.4892
21.5411 -8.85606 -5.43271
21.2838 -8.8691 -5.51029
21.6446 -8.88396 -5.40204
21.1797 -8.91882 -5.4849
21.0864 -8.94582 -5.47941
20.99 -8.96191 -5.5022
20.8974 -8.9414 -5.50658
20.739 -8.88657 -5.57473
20.813 -8.91356 -5.53627
20.6702 -8.86267 -5.609
20.6081 -8.84833 -5.63363
20.5772 -8.71651 -5.73735
20.5332 -8.56043 -5.82678
20.4548 -8.5314 -5.85353
20.3682 -8.50595 -5.87108
20.2582 -8.46284 -5.86068
20.1387 -8.43907 -5.86693
20.0212 -8.41068 -5.86091
19.8754 -8.47103 -5.77616
19.9164 -8.38659 -5.8515
19.8431 -8.5226 -5.70966
19.7801 -8.53759 -5.6985
19.7112 -8.53764 -5.66021
19.6622 -8.46921 -5.69173
19.6242 -8.41049 -5.71399
19.5754 -8.39214 -5.70128
19.5124 -8.36495 -5.70363
19.4492 -8.31826 -5.70475
19.3341 -8.33262 -5.60606
19.2762 -8.41215 -5.51214
19.2236 -8.48397 -5.4054
19.3843 -8.26445 -5.7064
19.1571 -8.56828 -5.2942
19.1583 -8.66499 -5.19971
18.6912 -8.82811 -4.4771
18.7289 -8.79171 -4.57381
18.6477 -8.78072 -4.45437
18.6148 -8.70907 -4.44875
18.5263 -8.7173 -4.33584
18.4359 -8.70668 -4.22332
18.3517 -8.65987 -4.12666
18.7229 -8.72464 -4.62058
17.6927 -8.61921 -3.03668
18.2764 -8.60891 -4.04505
18.2424 -8.50713 -4.05945
18.1083 -8.37274 -3.96642
18.0571 -8.29903 -3.92666
18.1836 -8.40014 -4.05856
18.0281 -8.16452 -3.97016
17.9444 -8.0885 -3.89279
17.8656 -8.12635 -3.76318
17.7891 -8.12144 -3.64753
17.7353 -8.09208 -3.55086
17.7225 -8.21557 -3.42899
17.7037 -8.30233 -3.3076
17.6664 -8.37091 -3.19885
17.6948 -8.49057 -3.10894
19.0773 -8.61225 -5.2089
18.9962 -8.56392 -5.18538
18.9642 -8.61936 -5.08328
18.9314 -8.52468 -5.12971
18.8558 -8.5047 -5.06764
18.7871 -8.47464 -4.98372
18.7083 -8.43781 -4.88617
18.6588 -8.48706 -4.74056
18.6908 -8.57956 -4.70433
18.6993 -8.66083 -4.6651
17.6674 -8.65404 -2.90792
17.6444 -8.67791 -2.78047
17.622 -8.70212 -2.65538
17.5757 -8.647 -2.577
17.547 -8.62107 -2.45038
17.5204 -8.63627 -2.30377
17.4784 -8.54663 -2.24813
17.4369 -8.46132 -2.19497
17.4223 -8.40111 -2.13325
17.4425 -8.48442 -1.73265
17.4664 -8.55251 -1.62652
17.46 -8.5944 -1.51274
17.3934 -8.39256 -2.04774
17.4057 -8.40435 -1.93848
17.4262 -8.40721 -1.83117
17.4522 -8.59108 -1.40735
17.4372 -8.56769 -1.30261
17.4357 -8.63165 -1.24351
17.4409 -8.676 -1.18459
17.4464 -8.70358 -1.12058
17.4519 -8.72948 -1.06256
17.4691 -8.76376 -1.01317
17.5023 -8.81011 -0.964592
17.4987 -8.80863 -0.891057
17.4778 -8.77123 -0.838683
17.451 -8.72159 -0.787227
17.4524 -8.75849 -0.673816
17.4909 -8.84054 -0.569447
17.5452 -8.92636 -0.537913
17.5953 -9.01374 -0.501023
17.6275 -9.10728 -0.405239
17.6282 -9.12901 -0.301598
17.6844 -9.22411 -0.147208
17.6445 -9.15189 -0.207598
17.6794 -9.17748 -0.132315
17.7322 -9.20549 -0.0745523
17.7614 -9.22542 -0.0161
17.7688 -9.16788 -0.00743743
17.7806 -9.0988 -0.0100815
17.8375 -9.09257 0.0514729
17.9033 -9.09874 0.127255
17.9522 -9.09309 0.203489
18.0083 -9.12392 0.274704
18.0789 -9.12976 0.331366
18.1302 -9.09345 0.388546
18.1787 -9.11193 0.418919
18.2401 -9.12775 0.466855
18.2896 -9.15081 0.502092
18.755 -9.24323 0.63442
18.7926 -9.2907 0.623869
18.8614 -9.28294 0.62301
18.9314 -9.24861 0.642345
19.0226 -9.24973 0.646233
19.1399 -9.25002 0.670581
19.2784 -9.25251 0.720136
18.5343 -9.20313 0.617973
18.5975 -9.17363 0.628952
18.669 -9.12884 0.63249
18.7426 -9.17386 0.614266
18.3349 -9.15204 0.530522
18.3725 -9.14316 0.563162
18.4167 -9.14742 0.595058
18.4781 -9.17166 0.607236
19.4457 -9.25165 0.746772
19.59 -9.2467 0.806995
19.7042 -9.26596 0.848946
19.8377 -9.28218 0.889213
19.947 -9.24104 0.892313
20.2034 -9.23068 0.969067
20.1237 -9.21614 0.921595
20.0422 -9.20682 0.90842
20.2502 -9.18683 0.991151
20.305 -9.15284 0.987009
20.4048 -9.16954 1.04
20.506 -9.19314 1.07238
20.5891 -9.17793 1.10929
22.6379 -9.50533 1.32831
20.8055 -9.15028 1.18499
20.9444 -9.16541 1.23401
21.0892 -9.16747 1.26786
21.171 -9.1923 1.28172
21.2779 -9.21575 1.30017
20.679 -9.13666 1.1463
21.38 -9.22656 1.33868
21.4915 -9.22944 1.37654
21.6095 -9.22956 1.42034
21.6308 -9.26562 1.40067
21.7274 -9.23839 1.45113
21.8329 -9.25573 1.46492
21.9278 -9.27452 1.46473
22.0091 -9.30443 1.47781
22.099 -9.32023 1.46848
22.2026 -9.34754 1.47133
22.3161 -9.37187 1.4604
22.4265 -9.40222 1.45097
22.422 -9.43833 1.4191
22.46 -9.45955 1.39673
