-18.8701 -9.45145 15.5043
-18.6372 -9.49727 15.4353
-18.9159 -9.58402 15.581
-18.3863 -9.2727 15.0252
-18.3004 -9.38171 15.1455
-18.2355 -9.52326 15.2514
-18.4021 -9.56975 15.3701
-18.9359 -9.75918 15.6845
-19.1402 -9.74405 15.7052
-19.2523 -9.89667 15.7822
-19.3529 -10.4245 16.0467
-19.2938 -10.156 15.9163
-19.4241 -10.7937 16.1747
-19.4108 -11.0767 16.3094
-19.4506 -11.3197 16.4189
-19.6526 -11.3894 16.4417
-19.7109 -11.6789 16.5598
-19.829 -11.706 16.5653
-19.9256 -11.7358 16.5411
-20.0672 -11.9255 16.6114
-20.2699 -12.097 16.6465
-20.4307 -11.9721 16.5577
-20.5529 -11.87 16.4848
-20.5893 -12.119 16.567
-20.7679 -12.0653 16.486
-20.918 -11.9139 16.3389
-21.1542 -11.9561 16.0784
-21.2322 -11.9593 15.9808
-21.0056 -11.8759 16.2324
-21.0735 -11.9194 16.1759
-21.2553 -12.0707 15.9161
-21.2749 -12.3726 15.9582
-21.3252 -12.8265 15.9992
-21.3807 -12.805 15.834
-21.459 -12.9825 15.546
-21.437 -12.593 15.4561
-21.4209 -13.0591 15.7746
-21.4657 -12.5354 15.1321
-21.4717 -12.7998 15.307
-21.4373 -12.133 14.9076
-21.4272 -11.962 14.7267
-21.4732 -12.3797 14.985
-21.4363 -11.886 14.4798
-21.3925 -11.6074 14.2961
-21.2237 -10.9811 14.0526
-21.2678 -11.1735 14.0714
-21.3106 -11.4282 14.1031
-21.1551 -10.9015 13.822
-21.0639 -10.7411 13.6639
-21.2084 -11.0133 13.956
-20.7193 -10.3148 13.1678
-20.6514 -10.0824 13.131
-21.0148 -10.8513 13.5449
-20.8978 -10.8513 13.359
-20.7781 -10.5723 13.2504
-20.4261 -10.0114 12.9251
-20.6108 -10.2649 13.0377
-20.4451 -10.2725 12.8747
-20.3449 -9.95048 12.853
-20.3277 -9.77383 12.8686
-20.2242 -9.634 12.8924
-20.1618 -9.51221 12.9645
-20.0993 -9.43522 13.0441
-19.8932 -9.43176 13.0569
-19.6698 -9.42583 13.0783
-19.5579 -9.36323 13.217
-19.4805 -9.31186 13.378
-19.298 -9.23859 13.5652
-18.7219 -8.95282 14.0821
-18.4622 -8.79559 14.2826
-18.5329 -8.92282 14.0164
-18.41 -8.84035 14.1045
-19.0177 -9.20356 13.578
-18.8851 -9.11387 13.7759
-18.7963 -9.03003 13.9473
-18.3915 -8.79455 14.3869
-18.4784 -8.80587 14.4891
-18.585 -8.81988 14.5683
-18.4355 -8.84209 14.5551
-18.1872 -9.24516 14.8629
-18.2441 -8.89393 14.5374
-18.0378 -9.01269 14.56
-17.988 -9.11878 14.6313
-18.0642 -8.94651 14.5132
-18.0819 -9.17713 14.7497
-18.659 -9.62978 15.5426
-18.4838 -9.63224 15.4621
-18.7535 -9.73108 15.6177
-18.1734 -9.35871 14.9938
-18.015 -9.49859 15.0632
-17.9869 -9.67122 15.2189
-18.1971 -9.65415 15.3345
-18.297 -9.72865 15.4069
-18.7126 -9.92503 15.6659
-18.8802 -9.97314 15.7432
-19.051 -9.90785 15.7812
-19.1246 -10.0979 15.886
-19.243 -10.66 16.1118
-19.1469 -10.4093 15.9758
-19.2129 -10.9263 16.2351
-19.3268 -11.0011 16.2922
-19.2399 -11.2122 16.3718
-19.2874 -11.5747 16.5156
-19.512 -11.6216 16.5304
-19.5942 -11.9455 16.6661
-19.8477 -11.9366 16.6546
-20.1136 -12.2578 16.7449
-19.9892 -12.1174 16.7011
-20.2918 -12.3781 16.7691
-20.43 -12.2912 16.6789
-20.5735 -12.4514 16.7085
-20.6815 -12.2999 16.5958
-20.7756 -12.319 16.5677
-20.8786 -12.207 16.4759
-20.9969 -12.1089 16.3397
-21.0994 -12.1402 16.2511
-21.1688 -12.2098 16.1654
-21.1994 -12.0675 16.0628
-21.2315 -12.1987 16.0433
-21.2394 -12.4446 16.098
-21.2645 -12.7049 16.1231
-21.2735 -13.1228 16.2186
-21.3462 -13.257 16.1201
-21.3932 -13.1818 15.9602
-21.4499 -13.2928 15.7074
-21.4934 -13.3821 15.5138
-21.4902 -13.1403 15.3729
-21.4181 -13.2979 15.8795
-21.4293 -13.2861 15.8102
-21.4984 -12.8437 15.1234
-21.4819 -12.7005 14.9608
-21.4982 -13.1166 15.179
-21.4715 -12.3876 14.8011
-21.4634 -12.2355 14.5877
-21.4418 -12.1183 14.4787
-21.4197 -12.0793 14.3901
-21.4214 -11.8773 14.3165
-21.3491 -11.7396 14.1658
-21.2205 -11.181 13.9213
-21.2547 -11.5427 13.9547
-21.142 -10.9991 13.7293
-20.6837 -10.5303 13.1116
-21.0929 -11.1477 13.6696
-20.9958 -11.2178 13.5227
-20.8667 -11.1049 13.3463
-20.7405 -10.8605 13.1978
-20.3745 -10.103 12.8671
-20.5789 -10.4928 12.9548
-20.3327 -10.5699 12.7562
-20.2768 -10.3597 12.7399
-20.3519 -10.2058 12.8259
-20.4503 -10.5932 12.8535
-20.2183 -10.0338 12.7645
-20.2502 -9.88266 12.8129
-20.2937 -10.1364 12.7993
-20.1747 -9.79244 12.8295
-20.0645 -9.71411 12.833
-19.9886 -9.59597 12.872
-19.9556 -9.47856 12.9487
-19.7722 -9.4644 12.9819
-19.5616 -9.45313 12.9783
-19.4208 -9.39822 13.1093
-19.282 -9.31654 13.3007
-19.1317 -9.25458 13.4333
-18.6398 -8.99331 13.94
-18.2837 -8.82337 14.1689
-18.2166 -8.82376 14.2747
-18.5021 -9.00653 13.8229
-18.3044 -8.91854 13.8762
-18.2193 -8.85932 14.0282
-18.7783 -9.15772 13.5766
-18.9492 -9.27079 13.329
-18.6831 -9.06707 13.7839
-18.2607 -8.83806 14.43
-17.9656 -9.26706 14.7673
-18.0154 -9.36032 14.9055
-18.0999 -8.89516 14.4404
-17.915 -9.01716 14.4989
-17.7356 -9.14025 14.5097
-17.7775 -9.27262 14.6672
-17.9425 -8.9282 14.4142
-18.4172 -9.77849 15.5109
-18.5493 -9.83191 15.5983
-17.8055 -9.42783 14.8562
-17.7706 -9.60858 15.0167
-17.884 -9.6249 15.1147
-17.792 -9.71137 15.1349
-17.7474 -9.86183 15.2465
-18.0451 -9.78737 15.368
-18.1722 -9.88881 15.485
-18.768 -10.0492 15.7266
-18.4805 -10.034 15.6894
-18.6441 -10.1363 15.75
-18.8418 -10.1991 15.7948
-18.9839 -10.0757 15.8145
-19.0037 -10.2544 15.883
-19.0722 -10.714 16.1316
-18.9015 -10.4943 15.9793
-19.0402 -10.9797 16.227
-19.1315 -11.0902 16.2959
-19.0312 -11.2022 16.3107
-19.0522 -11.4823 16.4347
-19.4001 -11.8233 16.6013
-19.1248 -11.7133 16.5628
-19.242 -11.8633 16.6313
-19.3868 -12.0812 16.7369
-19.5826 -12.2734 16.8219
-19.7687 -12.2097 16.755
-19.9133 -12.1968 16.7316
-19.9969 -12.2548 16.7551
-19.9612 -12.4316 16.8321
-20.1877 -12.5712 16.8435
-20.4096 -12.668 16.8438
-20.6048 -12.8017 16.8255
-20.7124 -12.5216 16.6841
-20.8469 -12.5008 16.5977
-20.9436 -12.3649 16.473
-21.0308 -12.3732 16.3981
-21.1111 -12.3451 16.2977
-21.2079 -12.3785 16.1647
-21.1583 -12.4781 16.2752
-21.2138 -12.6498 16.2383
-21.2459 -12.9033 16.2575
-21.3153 -13.5961 16.2777
-21.2301 -13.1365 16.3484
-21.2468 -13.4857 16.4314
-21.3716 -13.6005 16.102
-21.4122 -13.472 15.9615
-21.4427 -13.4944 15.8422
-21.472 -13.5344 15.6962
-21.4996 -13.5997 15.3469
-21.5167 -13.3572 15.2826
-21.4889 -13.7025 15.5663
-21.5029 -12.9907 15.0219
-21.4828 -12.7093 14.7886
-21.4998 -12.9625 14.8639
-21.525 -13.3199 15.1412
-21.544 -13.2325 14.9899
-21.4756 -12.5676 14.6442
-21.4671 -12.4485 14.5153
-21.4435 -12.2628 14.4567
-21.4253 -12.2394 14.3557
-21.4052 -12.0612 14.2395
-21.313 -11.9254 14.0664
-21.1779 -11.2584 13.8045
-21.2286 -11.8307 13.8802
-21.1307 -11.4756 13.7429
-20.6097 -10.7087 13.0755
-21.0378 -11.5928 13.5931
-20.9659 -11.4371 13.5098
-20.9016 -11.3714 13.4074
-20.7718 -11.2636 13.243
-20.6404 -11.0569 13.1013
-20.6375 -10.8661 13.0984
-20.5107 -10.6941 12.9755
-20.3264 -10.7679 12.7995
-20.2694 -10.7271 12.7555
-20.203 -10.7533 12.7196
-20.1918 -10.6033 12.7055
-20.1571 -10.2506 12.6944
-20.0476 -10.5791 12.6065
-20.4372 -10.8723 12.898
-20.0422 -10.1297 12.6754
-20.1061 -9.94538 12.7657
-19.9683 -9.85153 12.7515
-19.8804 -9.72081 12.7901
-19.7785 -9.63128 12.8299
-19.7375 -9.51983 12.8876
-19.4413 -9.48164 12.8827
-19.2823 -9.42471 13.0053
-19.1756 -9.35596 13.1487
-18.1182 -8.83752 14.1125
-18.0023 -8.85603 14.1852
-18.0241 -8.87566 14.3245
-18.5536 -9.09091 13.6122
-18.3638 -9.02706 13.6515
-18.1923 -9.00358 13.6515
-18.1075 -8.94471 13.7944
-18.1654 -8.88673 13.9135
-18.0451 -8.89383 13.9385
-18.6351 -9.19279 13.4067
-18.9599 -9.36219 13.07
-18.6844 -9.27885 13.2083
-17.7695 -8.99934 14.3946
-17.5188 -9.24673 14.4665
-17.6072 -9.27798 14.5878
-17.5923 -9.11964 14.3663
-17.6074 -9.42209 14.7018
-17.8348 -8.91584 14.3237
-18.3169 -9.96208 15.5984
-17.5855 -9.58745 14.8691
-17.5927 -9.77249 15.0459
-17.551 -9.90017 15.1428
-17.5067 -10.0176 15.21
-17.6564 -10.0917 15.3334
-17.8993 -9.97489 15.4374
-18.052 -10.124 15.5863
-18.2658 -10.1817 15.7049
-18.4529 -10.2696 15.7805
-18.6491 -10.412 15.8766
-18.884 -10.8196 16.1288
-18.7334 -10.6787 16.01
-18.8956 -11.0693 16.2174
-18.8242 -11.3091 16.2959
-18.8644 -11.5707 16.4681
-18.986 -11.7013 16.5607
-19.0601 -11.9273 16.6693
-19.2138 -12.0619 16.7481
-19.2762 -12.2383 16.8341
-19.4173 -12.3828 16.8885
-19.6065 -12.6169 16.9764
-19.7541 -12.4485 16.8766
-19.8678 -12.7349 16.9997
-20.0824 -12.7544 16.9682
-20.2581 -12.8714 16.9592
-20.3848 -12.9896 16.9617
-20.4899 -12.9686 16.9254
-20.5819 -13.184 16.9747
-20.6935 -13.0202 16.8748
-20.7645 -12.7767 16.7557
-20.896 -12.782 16.6702
-20.9295 -12.5518 16.547
-20.9755 -12.4784 16.4843
-20.9977 -12.6475 16.5298
-21.0731 -12.5818 16.4003
-21.1395 -12.7758 16.4008
-21.2077 -12.9524 16.372
-21.2921 -13.9124 16.4594
-21.3252 -13.8892 16.346
-21.3618 -13.9104 16.2583
-21.1852 -13.2442 16.476
-21.154 -13.5584 16.6134
-21.2271 -13.8412 16.6036
-21.4216 -13.9873 16.134
-21.4111 -13.7894 15.964
-21.4499 -13.7727 15.7681
-21.5072 -13.8737 15.3862
-21.5162 -13.7302 15.1935
-21.5181 -13.5015 15.1122
-21.4862 -14.015 15.6087
-21.5057 -12.8736 14.6832
-21.5354 -13.1719 14.7634
-21.5516 -13.4458 14.8693
-21.4962 -12.7144 14.4961
-21.4559 -12.4418 14.4008
-21.4269 -12.3447 14.2731
-21.367 -12.2306 14.1385
-21.2808 -12.1597 13.9819
-21.1919 -12.1015 13.808
-21.1292 -11.8073 13.7234
-20.5646 -10.866 13.017
-20.9596 -11.5995 13.4641
-21.0745 -11.8168 13.624
-21.0242 -11.8317 13.5193
-20.8716 -11.6365 13.3152
-20.7355 -11.5128 13.1584
-20.6606 -11.3015 13.1282
-20.5589 -11.2421 13.0331
-20.5269 -11.0356 12.99
-20.2183 -10.8492 12.7626
-20.273 -11.0528 12.7868
-20.1334 -11.0088 12.668
-20.0831 -10.8221 12.6266
-19.9759 -10.3599 12.6034
-19.8965 -10.9971 12.5075
-19.8207 -10.7976 12.4711
-19.8833 -10.5601 12.5347
-20.4405 -11.1753 12.9025
-19.9056 -10.0374 12.6618
-19.8058 -10.2682 12.5643
-19.781 -9.96289 12.6619
-19.7426 -9.84089 12.6954
-19.6224 -9.71397 12.7425
-19.5664 -9.58575 12.8099
-19.1316 -9.4459 12.9022
-19.2895 -9.53354 12.7941
-17.9463 -8.87227 14.0477
-17.8743 -8.87893 14.1176
-17.8361 -8.891 14.2109
-18.4227 -9.12517 13.461
-18.2727 -9.08963 13.5121
-18.1431 -9.11031 13.4692
-18.0346 -9.02747 13.6081
-17.9414 -8.96414 13.7414
-17.8296 -8.91206 13.8727
-18.4895 -9.21366 13.3064
-18.8613 -9.40291 12.9328
-18.6672 -9.34104 13.0462
-18.4726 -9.246 13.1621
-17.6488 -8.99858 14.2485
-17.4036 -9.26321 14.341
-17.3523 -9.39572 14.4323
-17.4492 -9.40543 14.5698
-17.4802 -9.15621 14.2578
-17.4269 -9.559 14.7113
-17.3695 -9.75921 14.8535
-17.3828 -9.94918 15.0365
-17.4706 -10.1759 15.2615
-17.3001 -10.1535 15.149
-17.7809 -10.215 15.4758
-17.5219 -10.3188 15.3867
-17.8708 -10.4124 15.6364
-18.0867 -10.347 15.7214
-18.2641 -10.4658 15.8122
-18.456 -10.4902 15.847
-18.5521 -10.6871 15.9663
-18.6943 -10.9675 16.1251
-18.6304 -11.5303 16.3955
-18.5806 -11.212 16.2148
-18.8363 -11.8373 16.5612
-18.9286 -12.0998 16.7167
-19.1015 -12.2479 16.8037
-19.2475 -12.4826 16.9135
-19.3973 -12.6885 17.0127
-19.5199 -12.8923 17.0752
-19.707 -12.9783 17.1105
-19.9112 -13.0512 17.0981
-20.0233 -12.9448 17.0552
-20.1582 -12.9985 17.0459
-20.2996 -13.2229 17.1105
-20.451 -13.1741 17.0134
-20.4792 -13.4658 17.152
-20.6383 -13.5056 17.0943
-20.7336 -13.295 16.9618
-20.7975 -13.0488 16.7992
-20.9795 -12.9074 16.6516
-20.9108 -13.0615 16.7463
-21.0422 -12.8393 16.5662
-21.054 -12.7061 16.4998
-21.0912 -12.7738 16.492
-21.152 -13.0527 16.4834
-21.0862 -12.9963 16.5567
-21.2364 -14.1415 16.6199
-21.2811 -14.286 16.523
-21.3397 -14.1298 16.381
-21.3832 -14.2369 16.2602
-21.1078 -13.292 16.6089
-21.1198 -13.4927 16.6998
-21.0626 -13.6679 16.7752
-21.134 -13.8507 16.7367
-21.1805 -14.0763 16.726
-21.422 -14.2703 16.121
-21.4544 -14.1082 16.0196
-21.4703 -14.067 15.8513
-21.5095 -14.0255 15.459
-21.5288 -14.091 15.326
-21.5446 -13.9199 15.1632
-21.5146 -13.7244 14.9704
-21.5137 -14.291 15.7045
-21.5405 -14.226 15.5521
-21.5111 -14.124 15.4808
-21.5233 -13.0638 14.564
-21.5381 -13.386 14.6506
-21.5287 -13.6129 14.778
-21.4924 -12.9577 14.3862
-21.4593 -12.6373 14.2994
-21.4173 -12.4593 14.1807
-21.346 -12.4286 14.0567
-21.2486 -12.4271 13.8839
-21.1387 -12.3275 13.7166
-21.0953 -12.0405 13.6441
-20.9557 -11.7451 13.4212
-21.0014 -12.0984 13.5127
-20.9229 -11.9046 13.4141
-20.8318 -11.9318 13.2917
-20.7491 -11.7442 13.2112
-20.6331 -11.6897 13.063
-20.6279 -11.4423 13.0572
-20.5027 -11.4466 12.9591
-20.3089 -11.4227 12.8057
-20.1365 -11.3004 12.6774
-20.0039 -11.0628 12.573
-20.0046 -11.2584 12.5841
-19.8037 -10.4592 12.5369
-19.6762 -11.112 12.4144
-19.8904 -11.2684 12.496
-19.6988 -11.3925 12.4171
-19.617 -10.9206 12.3804
-19.6801 -10.6737 12.4482
-19.6252 -10.1405 12.5606
-19.6158 -10.488 12.4604
-19.5482 -10.348 12.4804
-19.5796 -9.97348 12.605
-19.4972 -9.84429 12.634
-19.3349 -9.73501 12.6637
-19.4151 -9.63947 12.7475
-18.9215 -9.48957 12.796
-19.1655 -9.61898 12.7127
-17.7973 -8.87953 14.0211
-17.7772 -8.88993 14.1139
-17.6983 -8.92184 14.1511
-18.3077 -9.18493 13.3325
-18.133 -9.20089 13.2636
-17.9944 -9.11129 13.4261
-17.8867 -9.04871 13.5541
-17.7694 -8.9875 13.6614
-17.668 -8.92818 13.926
-17.6504 -8.97954 13.7678
-18.6379 -9.39482 12.9122
-18.4405 -9.31048 13.0323
-18.306 -9.25715 13.1679
-17.5658 -8.9982 14.1054
-17.4371 -9.12214 14.159
-17.2147 -9.46764 14.3192
-17.2661 -9.30194 14.2108
-17.1979 -9.56274 14.4298
-17.3158 -9.49864 14.5042
-17.3378 -9.54616 14.5934
-17.2609 -9.67042 14.6759
-17.1553 -9.83304 14.7532
-17.2194 -9.92765 14.8859
-17.159 -10.0785 14.9796
-17.3547 -10.2979 15.256
-17.0791 -10.2672 15.0688
-17.2009 -10.341 15.1938
-17.6654 -10.4129 15.5235
-17.2652 -10.5133 15.3325
-17.5003 -10.6075 15.5018
-17.6729 -10.5904 15.6081
-17.827 -10.6542 15.7287
-18.0286 -10.6502 15.8306
-18.2363 -10.7538 15.932
-18.3772 -10.6518 15.9274
-18.4297 -10.9397 16.0405
-18.3481 -11.2755 16.2163
-18.382 -11.6529 16.368
-18.5936 -11.8675 16.5167
-18.7489 -12.0975 16.6733
-18.883 -12.4001 16.8126
-19.0922 -12.5425 16.8931
-19.1945 -12.8226 17.0302
-19.374 -12.9832 17.0981
-19.5163 -13.2042 17.2102
-19.6907 -13.2016 17.1746
-19.8191 -13.2064 17.1739
-19.9522 -13.2489 17.1631
-20.0832 -13.1957 17.1313
-20.1578 -13.4835 17.2148
-20.302 -13.6213 17.2314
-20.4201 -13.8215 17.2694
-20.5645 -13.7614 17.2145
-20.7023 -13.7743 17.1405
-20.74 -13.5441 17.0481
-20.8073 -13.4627 16.9757
-20.8748 -13.2819 16.8887
-21.0227 -13.0135 16.6389
-20.9686 -13.0912 16.6927
-20.949 -13.2127 16.7784
-21.0226 -13.2127 16.6936
-21.2391 -14.4206 16.6848
-21.1912 -14.2836 16.7382
-21.2839 -14.5616 16.6021
-21.3474 -14.5339 16.426
-21.4198 -14.5663 16.2131
-21.0673 -13.4496 16.7722
-20.9736 -13.5985 16.8854
-20.9875 -13.7713 16.8994
-21.0654 -13.8852 16.8806
-21.1089 -14.0637 16.8477
-21.131 -14.2687 16.8352
-21.4774 -14.4299 15.9529
-21.5568 -14.2396 15.4184
-21.5903 -14.3101 15.2299
-21.5553 -14.1075 15.1266
-21.5562 -13.9843 14.9696
-21.5451 -13.8397 14.7821
-21.5187 -14.5488 15.7103
-21.5638 -14.4584 15.4766
-21.4975 -13.2594 14.4667
-21.5291 -13.6413 14.6422
-21.5131 -13.4933 14.5274
-21.4355 -12.9032 14.2217
-21.46 -13.1831 14.3022
-21.3995 -12.6577 14.1362
-21.3279 -12.6317 13.9978
-21.2598 -12.7542 13.85
-21.1815 -12.5561 13.7428
-21.0831 -12.5154 13.5938
-21.06 -12.273 13.5929
-20.8992 -12.1458 13.393
-20.9935 -12.3322 13.4814
-20.7766 -12.186 13.2626
-20.7123 -11.9205 13.1868
-20.5821 -12.0113 13.0782
-20.4414 -11.7107 12.9194
-20.2248 -11.7492 12.7592
-20.1501 -11.5394 12.6779
-19.9944 -11.5471 12.5575
-19.9241 -11.4002 12.511
-19.4743 -11.1686 12.3455
-19.4986 -11.3986 12.3386
-19.8248 -11.5291 12.446
-19.6495 -11.7664 12.3544
-19.4978 -11.6924 12.2745
-19.5075 -10.8438 12.3752
-19.4468 -10.9977 12.36
-19.4302 -10.7085 12.3607
-19.4204 -10.2876 12.4694
-19.4409 -10.188 12.5003
-19.4086 -10.1032 12.5212
-19.3586 -10.5309 12.3782
-19.3905 -10.3928 12.4226
-19.3358 -9.97909 12.5552
-19.2702 -9.87119 12.603
-19.0859 -9.80452 12.6013
-19.1606 -9.7084 12.6598
-18.7245 -9.54958 12.7219
-18.5899 -9.44864 12.7897
-18.9251 -9.59254 12.7037
-18.9997 -9.68883 12.6545
-17.6734 -8.91854 14.0525
-18.2286 -9.27546 13.0608
-18.0645 -9.24813 13.1335
-17.9555 -9.19007 13.2753
-17.8699 -9.12313 13.4068
-17.747 -9.08666 13.4763
-17.5992 -9.07971 13.5807
-17.54 -9.01848 13.8551
-17.5504 -9.00195 13.9813
-17.5044 -9.07744 13.7229
-18.3712 -9.36518 12.896
-17.3923 -9.12276 14.0186
-17.2756 -9.2468 14.0939
-17.0375 -9.56269 14.2087
-16.9757 -9.72373 14.369
-17.0811 -9.43431 14.0799
-17.082 -9.68866 14.4879
-17.2139 -9.61463 14.5426
-17.0995 -9.75173 14.6062
-16.9969 -9.91782 14.6634
-17.0629 -10.0117 14.8091
-16.9802 -10.2023 14.8817
-16.9168 -10.4124 14.967
-17.0359 -10.5183 15.1539
-17.0575 -10.7926 15.3097
-17.257 -10.8318 15.474
-17.5791 -10.6288 15.5705
-17.4412 -10.8969 15.6085
-17.5812 -10.7336 15.6159
-17.6937 -10.7794 15.7431
-17.8474 -10.8919 15.8803
-18.0081 -10.9306 15.9634
-18.1205 -10.8817 15.9695
-18.2375 -10.9862 16.0632
-18.1136 -11.1408 16.0851
-18.1341 -11.4739 16.2433
-18.1905 -11.81 16.3604
-18.3995 -11.938 16.4766
-18.5559 -12.1076 16.5992
-18.6769 -12.2886 16.7049
-18.6574 -12.4925 16.7898
-18.8063 -12.6836 16.9259
-18.987 -12.7119 16.9808
-19.017 -12.9582 17.0849
-19.1262 -13.0783 17.1394
-19.2547 -13.1108 17.151
-19.3575 -13.1393 17.2002
-19.73 -13.4026 17.2527
-19.3115 -13.2914 17.251
-19.396 -13.4508 17.2934
-19.5453 -13.5316 17.3144
-19.8928 -13.364 17.2283
-20.015 -13.4146 17.2116
-20.0432 -13.6093 17.2798
-20.1317 -13.7905 17.3503
-20.2809 -13.8999 17.3431
-20.3612 -14.1006 17.4203
-20.5085 -14.0282 17.3211
-20.62 -13.9564 17.2634
-20.727 -14.0749 17.2328
-20.8354 -13.8842 17.0918
-20.8304 -13.6535 17.0323
-20.8916 -13.5086 16.9346
-20.9806 -13.3762 16.8481
-21.1811 -14.509 16.8508
-21.2461 -14.7352 16.7793
-21.324 -14.8207 16.6205
-21.3796 -14.9016 16.4703
-21.3931 -14.7359 16.3466
-21.4899 -14.8066 16.0785
-21.4301 -14.9359 16.2879
-20.8938 -13.6345 16.956
-20.911 -13.7481 16.9826
-20.974 -13.9361 17.0204
-21.0474 -14.057 16.9604
-21.0511 -14.2572 16.9578
-21.105 -14.4309 16.939
-21.5237 -14.7818 15.8429
-21.6025 -14.595 15.2192
-21.6138 -14.4483 15.0581
-21.5943 -14.2293 14.9788
-21.5536 -14.0643 14.8364
-21.5478 -14.01 14.7
-21.5388 -13.8228 14.636
-21.5624 -14.804 15.5459
-21.586 -14.6667 15.3853
-21.4915 -13.5013 14.3789
-21.5081 -13.6969 14.5253
-21.4013 -13.1208 14.148
-21.357 -12.8902 14.0462
-21.4326 -13.3914 14.2033
-21.1596 -12.7203 13.6776
-21.2892 -13.0792 13.9098
-21.1812 -12.9467 13.7064
-20.9842 -12.5367 13.4357
-21.0681 -12.7864 13.5144
-20.9065 -12.3478 13.3716
-20.8494 -12.4861 13.3128
-20.6778 -12.3987 13.1528
-20.4762 -12.2246 12.9841
-20.378 -11.9543 12.8959
-20.2355 -11.9415 12.812
-20.1089 -11.9683 12.7208
-20.0998 -11.808 12.669
-20.0851 -11.6929 12.6507
-19.9842 -11.8279 12.6147
-19.8063 -11.8494 12.4829
-19.4069 -11.3345 12.3078
-19.3134 -11.2795 12.2795
-19.3392 -11.1217 12.2731
-19.3906 -11.5755 12.2874
-19.3242 -11.4551 12.2549
-19.6361 -12.0722 12.3888
-19.4468 -12.0422 12.2508
-19.3613 -11.8795 12.2084
-19.273 -11.7025 12.2115
-19.3119 -10.9367 12.3052
-19.2619 -10.8105 12.2969
-19.2346 -10.7259 12.3183
-19.2762 -10.2314 12.4276
-19.2033 -10.4172 12.3562
-19.1603 -10.1131 12.4412
-19.0533 -10.6761 12.2691
-19.0593 -9.96959 12.5047
-18.8915 -9.87554 12.5127
-18.8303 -9.76777 12.5835
-18.7746 -9.6571 12.6513
-18.6053 -9.61541 12.6659
-18.5043 -9.55338 12.7322
-18.3975 -9.46764 12.796
-18.1157 -9.33815 12.9697
-17.9039 -9.2879 13.1287
-17.7953 -9.19104 13.3134
-17.6212 -9.19231 13.3937
-17.5101 -9.19984 13.498
-17.4297 -9.19355 13.6062
-17.4077 -9.11046 13.8078
-17.439 -9.08396 13.9111
-17.389 -9.16304 13.7128
-18.2348 -9.45308 12.843
-17.2787 -9.2147 13.8739
-17.1912 -9.29561 13.989
-16.8443 -9.67899 14.0869
-16.8384 -9.76455 14.2297
-16.6907 -9.99488 14.3356
-16.8278 -9.94025 14.4745
-16.9724 -9.84042 14.5181
-17.0496 -9.4409 13.9685
-16.938 -9.55403 13.9945
-16.8701 -9.99467 14.5852
-16.8964 -10.1093 14.7107
-16.7885 -10.3546 14.7785
-16.7632 -10.58 14.8988
-16.8685 -10.6253 15.0305
-16.8834 -10.7657 15.1679
-16.8504 -11.0828 15.2886
-17.0708 -11.1022 15.4645
-17.2785 -11.1453 15.6208
-17.4739 -11.1653 15.7584
-17.5757 -10.9344 15.7481
-17.7021 -10.9827 15.8377
-17.7665 -11.206 15.962
-17.9452 -11.1554 16.0259
-18.0176 -11.3035 16.1446
-17.8971 -11.4646 16.1523
-18.0185 -11.685 16.295
-18.0415 -11.8359 16.3522
-18.0884 -11.9928 16.4371
-18.2556 -12.0217 16.4972
-18.3903 -12.1307 16.5616
-18.4975 -12.3085 16.656
-18.4207 -12.5506 16.7368
-18.6177 -12.7173 16.8705
-18.7457 -12.8947 17.0004
-18.8909 -12.8611 17.0407
-18.8671 -13.0453 17.1139
-19.0001 -13.1753 17.1822
-19.1465 -13.277 17.2343
-19.7238 -13.7387 17.3488
-19.8996 -13.5589 17.2722
-19.2134 -13.5573 17.3181
-19.3986 -13.6443 17.3595
-19.5211 -13.7366 17.3789
-19.9445 -13.7633 17.3726
-19.9438 -14.0104 17.4817
-20.1577 -14.1343 17.4893
-20.2686 -14.3994 17.5347
-20.4791 -14.3563 17.4605
-20.6067 -14.1498 17.3422
-20.6644 -14.3619 17.3662
-20.8025 -14.2921 17.2601
-20.8592 -14.1098 17.126
-21.1024 -14.6634 17.0163
-21.1644 -14.7822 16.9357
-21.2189 -15.0199 16.9578
-21.305 -15.0304 16.8048
-21.3519 -15.1568 16.668
-21.3985 -15.2289 16.4805
-21.4529 -15.0311 16.1488
-21.5032 -15.1082 15.9857
-21.4491 -15.2921 16.2559
-20.9668 -14.1682 17.0452
-20.9892 -14.3666 17.0917
-21.0513 -14.475 17.0424
-21.5284 -15.0308 15.7341
-21.5735 -14.8215 15.2859
-21.5926 -14.8075 15.1046
-21.6032 -14.6511 14.9942
-21.5979 -14.4441 14.8805
-21.5898 -14.2242 14.7824
-21.561 -14.1647 14.6275
-21.5304 -13.9301 14.5607
-21.5573 -15.1534 15.5239
-21.5785 -15.0273 15.347
-21.4862 -13.819 14.4223
-21.4397 -13.7231 14.2524
-21.3486 -13.0942 14.0454
-21.3602 -13.2929 14.049
-21.3773 -13.5547 14.0997
-21.2905 -13.3682 13.9097
-21.178 -13.2188 13.7654
-21.0653 -13.1147 13.5713
-20.9422 -12.7013 13.368
-20.9368 -12.9682 13.3595
-20.8148 -12.7035 13.2468
-20.6575 -12.6831 13.1303
-20.5454 -12.4829 13.0276
-20.3709 -12.4119 12.8819
-20.2754 -12.1225 12.848
-20.133 -12.2836 12.7226
-19.9039 -12.1067 12.5869
-19.7662 -12.0787 12.4553
-19.2173 -11.3655 12.257
-19.1315 -11.2031 12.2158
-19.14 -11.4859 12.1871
-19.7405 -12.2843 12.44
-19.5354 -12.3727 12.2992
-19.2876 -12.4094 12.1848
-19.1767 -12.0479 12.152
-19.0255 -11.7241 12.1088
-19.0906 -10.9054 12.2435
-18.9797 -10.3169 12.3448
-18.8991 -10.5431 12.2567
-18.8817 -10.1499 12.3914
-18.8633 -10.8892 12.1654
-18.7599 -10.7539 12.1586
-18.7734 -10.008 12.4375
-18.6924 -9.86968 12.4827
-18.636 -9.77185 12.5486
-18.7134 -9.71437 12.5928
-18.6054 -9.68709 12.6016
-18.4186 -9.65462 12.6155
-18.304 -9.54565 12.721
-18.0841 -9.44623 12.8728
-17.9483 -9.41404 12.9655
-17.7667 -9.39779 13.0598
-17.6983 -9.29535 13.2205
-17.526 -9.32608 13.2923
-17.4895 -9.27293 13.411
-17.3931 -9.28602 13.4841
-17.2926 -9.30526 13.5537
-17.2751 -9.26672 13.6584
-17.3001 -9.21749 13.7612
-18.1303 -9.54054 12.7706
-17.116 -9.36817 13.7379
-17.093 -9.38433 13.8808
-16.7934 -9.67672 13.9369
-16.5941 -9.89991 13.9934
-16.6887 -9.8651 14.1674
-16.5691 -10.0311 14.1649
-16.5003 -10.2155 14.26
-16.5488 -10.3082 14.4255
-16.7155 -10.1947 14.5715
-16.9387 -9.52481 13.9013
-16.653 -10.4124 14.6761
-16.6005 -10.6198 14.7733
-16.6302 -10.7627 14.9006
-16.7383 -10.7564 14.9925
-16.8035 -10.7547 15.0743
-16.7327 -10.9381 15.1051
-16.6536 -11.1812 15.1977
-16.6647 -11.4416 15.3428
-16.8929 -11.3908 15.4965
-17.1082 -11.4095 15.6363
-17.3287 -11.4684 15.8237
-17.5759 -11.3871 15.9671
-17.624 -11.1332 15.85
-17.7319 -11.4216 16.0657
-17.7056 -11.6306 16.113
-17.8827 -11.8547 16.2952
-17.9654 -12.1986 16.4711
-18.2454 -12.2561 16.5671
-18.4806 -12.7402 16.8318
-18.1106 -12.5462 16.6652
-18.3138 -12.7553 16.8012
-18.5369 -12.9102 16.9343
-18.6994 -13.1149 17.0761
-18.8403 -13.2479 17.1791
-18.9781 -13.4302 17.2486
-19.5424 -13.921 17.4918
-19.7468 -13.9834 17.501
-19.8502 -13.8816 17.4198
-19.0107 -13.6711 17.3624
-19.1717 -13.8 17.4627
-19.3065 -13.746 17.4175
-19.4182 -13.7953 17.4328
-19.7727 -14.2229 17.6003
-19.9458 -14.3148 17.5946
-20.0746 -14.4948 17.6173
-20.1775 -14.7265 17.6828
-20.341 -14.6027 17.5751
-20.4539 -14.6611 17.5797
-20.5834 -14.6112 17.5054
-20.7061 -14.6322 17.427
-20.7571 -14.4889 17.3228
-20.8462 -14.4871 17.2618
-20.8985 -14.3142 17.162
-21.0349 -14.6422 17.1129
-21.0559 -14.8401 17.1732
-21.1401 -14.9798 17.1086
-21.1633 -15.1909 17.0965
-21.1895 -15.2542 17.0173
-21.2359 -15.1988 16.914
-21.2883 -15.2805 16.8337
-21.3035 -15.3652 16.7594
-21.339 -15.5098 16.6974
-21.4007 -15.5988 16.5011
-21.5317 -15.3561 15.7569
-21.5031 -15.5223 16.0483
-21.4492 -15.6583 16.3131
-20.9956 -14.5353 17.1281
-20.9308 -14.5072 17.1876
-21.5843 -15.0517 15.112
-21.603 -14.899 14.9202
-21.6113 -14.6678 14.7866
-21.591 -14.4018 14.7039
-21.558 -14.3215 14.5526
-21.5071 -14.0817 14.4877
-21.5784 -15.322 15.261
-21.5626 -15.4445 15.481
-21.4709 -14.0162 14.3452
-21.4383 -13.9856 14.2162
-21.3732 -13.838 14.108
-21.351 -13.464 14.0018
-21.2924 -13.6473 13.9681
-21.1934 -13.5086 13.7815
-21.1152 -13.3301 13.6598
-21.0388 -13.3615 13.5475
-20.9604 -13.2315 13.4457
-20.821 -13.2863 13.3055
-20.735 -12.9579 13.205
-20.6229 -12.837 13.112
-20.4874 -12.7145 13.0015
-20.1994 -12.6513 12.7969
-19.9415 -12.4567 12.5849
-18.8719 -11.4361 12.1022
-18.8474 -11.1207 12.1269
-19.7075 -12.6159 12.4215
-19.49 -12.6414 12.3079
-19.4169 -12.5312 12.2338
-19.3194 -12.6937 12.2348
-19.1916 -12.6732 12.1622
-19.0793 -12.5445 12.1303
-19.1151 -12.3333 12.1434
-18.9098 -12.3332 12.0899
-18.9156 -11.9737 12.0849
-18.7405 -11.7279 12.0488
-18.7381 -10.3063 12.292
-18.7275 -10.4656 12.2272
-18.6766 -10.6346 12.1882
-18.6073 -10.1874 12.3154
-18.5994 -11.0222 12.0795
-18.4812 -10.8093 12.1072
-18.5242 -10.0072 12.4064
-18.5018 -9.85181 12.4705
-18.487 -9.7505 12.536
-18.2905 -9.84286 12.4787
-18.1496 -9.67651 12.6209
-17.9726 -9.51701 12.8285
-17.8087 -9.49737 12.9056
-17.6341 -9.50879 12.9878
-17.5714 -9.41196 13.1353
-17.3894 -9.4639 13.2254
-17.3771 -9.37362 13.3669
-17.236 -9.40208 13.4497
-17.1195 -9.41734 13.5659
-18.007 -9.61168 12.719
-16.9863 -9.50746 13.635
-16.9223 -9.54191 13.718
-16.9759 -9.48474 13.8084
-16.8253 -9.62737 13.8058
-16.6754 -9.78718 13.8297
-16.5337 -9.94309 13.7913
-16.4337 -10.1053 13.8669
-16.4194 -10.2155 14.0676
-16.3878 -10.3662 14.2221
-16.4213 -10.4451 14.3432
-16.4464 -10.5242 14.4638
-16.5235 -10.5108 14.5959
-16.4028 -10.8275 14.7022
-16.4571 -10.9579 14.8615
-16.597 -10.9455 14.9882
-16.5851 -11.1247 15.0818
-16.4841 -11.3817 15.1581
-16.4737 -11.6584 15.2762
-16.5943 -11.7276 15.4114
-16.7765 -11.7234 15.551
-16.9675 -11.6315 15.653
-17.135 -11.6965 15.789
-17.475 -11.733 16.0401
-17.2941 -11.766 15.9117
-17.6412 -11.8777 16.2043
-17.7068 -12.1179 16.3455
-17.7933 -12.4061 16.5114
-17.8734 -12.6847 16.6497
-18.1264 -12.8151 16.7803
-18.1787 -12.7041 16.7596
-18.3426 -12.9909 16.9141
-18.5189 -13.1126 17.0191
-18.6144 -13.2728 17.1037
-18.7315 -13.2737 17.1428
-18.7478 -13.4194 17.2229
-18.8682 -13.5704 17.3014
-19.4148 -14.1487 17.5981
-19.6131 -14.1286 17.5927
-19.3433 -13.9071 17.5066
-18.8444 -13.6992 17.3891
-18.9781 -13.9031 17.5029
-19.2106 -14.0289 17.5583
-19.8032 -14.4255 17.6502
-19.5819 -14.3655 17.652
-19.7094 -14.4009 17.6337
-19.8701 -14.6181 17.7048
-19.9903 -14.787 17.7352
-20.0449 -14.9606 17.7816
-20.1475 -15.0092 17.7753
-20.3162 -14.899 17.6908
-20.4957 -14.916 17.618
-20.6391 -14.8473 17.5286
-20.7414 -14.8489 17.4793
-20.8255 -14.7139 17.3939
-20.8882 -14.6689 17.2749
-20.9745 -14.7205 17.2187
-21.0057 -14.9578 17.2926
-21.0502 -15.1133 17.2599
-21.0916 -15.275 17.2084
-21.1452 -15.4497 17.1467
-21.2233 -15.4302 16.9891
-21.2753 -15.5236 16.8682
-21.2935 -15.8303 16.8979
-21.3453 -15.8801 16.7136
-21.3873 -16.0464 16.5141
-21.5136 -15.5973 15.8476
-21.5681 -15.7036 15.6469
-21.4552 -15.8714 16.2023
-21.5114 -15.8478 15.9237
-21.5972 -15.3345 15.0125
-21.6024 -15.1478 14.8695
-21.5946 -15.0096 14.8256
-21.5908 -14.9014 14.7563
-21.5859 -14.7591 14.6473
-21.5772 -14.5533 14.6104
-21.5439 -14.4531 14.4886
-21.4995 -14.2615 14.4253
-21.6028 -15.5024 15.3322
-21.6231 -15.5974 15.2157
-21.6314 -15.5033 15.0929
-21.5956 -15.6811 15.3819
-21.4519 -14.255 14.2796
-21.3923 -14.1308 14.1257
-21.3142 -14.0127 13.9614
-21.2181 -13.7903 13.845
-21.1349 -13.7563 13.6842
-21.0925 -13.4985 13.6511
-20.928 -13.4725 13.4396
-21.0192 -13.5976 13.5643
-20.7896 -13.7169 13.3023
-20.6879 -13.4572 13.2185
-20.6527 -13.2239 13.1696
-20.582 -12.9891 13.0731
-20.3781 -12.9629 12.9386
-20.1669 -12.9836 12.7714
-19.9292 -12.7942 12.625
-18.6685 -11.5077 12.0303
-18.598 -11.3186 12.0296
-19.6612 -12.7567 12.4324
-19.5683 -12.8428 12.3779
-19.7149 -12.8452 12.4898
-19.4157 -12.8078 12.3004
-19.31 -12.9203 12.2487
-19.1807 -12.8756 12.204
-19.047 -12.8082 12.1552
-18.9172 -12.6964 12.0914
-18.7192 -12.6683 12.0292
-18.6301 -12.35 12.0127
-18.7052 -12.0562 12.0456
-18.5107 -11.8822 11.9952
-18.4872 -11.5845 11.9778
-18.5145 -10.4302 12.2118
-18.5412 -10.5976 12.1575
-18.4113 -10.3073 12.2484
-18.4192 -10.1591 12.3108
-18.4088 -11.2227 11.9992
-18.3139 -11.0758 12.0214
-18.2108 -10.9176 12.0455
-18.3231 -10.6807 12.1251
-18.2992 -10.0543 12.3643
-18.402 -9.93203 12.4269
-18.1223 -10.0278 12.414
-17.9639 -9.93084 12.5141
-17.9387 -9.73572 12.6445
-17.8196 -9.64104 12.759
-17.6819 -9.60092 12.8707
-17.5363 -9.64078 12.92
-17.425 -9.59041 13.0624
-17.234 -9.61996 13.1754
-17.2178 -9.5185 13.3189
-17.0372 -9.56757 13.4138
-16.9269 -9.58339 13.5275
-16.8385 -9.61944 13.6205
-16.8042 -9.65716 13.705
-16.7261 -9.73509 13.7387
-16.6253 -9.84061 13.7073
-16.5283 -9.96403 13.6573
-16.4221 -10.1169 13.6823
-16.3527 -10.2647 13.7674
-16.3568 -10.2784 13.9013
-16.3056 -10.5198 14.1506
-16.2988 -10.447 13.9839
-16.3542 -10.5315 14.2675
-16.3289 -10.6107 14.3538
-16.363 -10.6152 14.4275
-16.3516 -10.7572 14.5392
-16.3118 -11.1105 14.7558
-16.2592 -11.0591 14.6339
-16.4558 -11.1989 14.9908
-16.2714 -11.3109 14.8855
-16.3293 -11.6613 15.1497
-16.3164 -11.4709 15.0273
-16.4529 -11.892 15.3977
-16.3191 -11.8685 15.2617
-16.6016 -11.9301 15.5468
-16.9424 -11.9259 15.8067
-16.7521 -11.9925 15.6915
-17.1506 -11.9159 15.9419
-17.3095 -11.9135 16.0469
-17.4461 -12.0522 16.1969
-17.5303 -12.329 16.364
-17.6008 -12.5909 16.5146
-17.703 -12.8136 16.6394
-17.9245 -12.9387 16.7688
-18.1646 -13.0695 16.8861
-18.5652 -13.4079 17.1482
-18.7532 -13.5882 17.2995
-19.2545 -14.228 17.6235
-19.3449 -14.4303 17.6902
-18.7043 -13.6767 17.3363
-18.773 -13.8174 17.413
-18.929 -14.11 17.5546
-19.094 -14.1631 17.6003
-19.6847 -14.5815 17.7074
-19.5098 -14.6118 17.7294
-19.6944 -14.8537 17.8171
-19.8414 -14.8811 17.7924
-19.9015 -15.0391 17.8424
-19.993 -15.2312 17.885
-20.1904 -15.242 17.8434
-20.351 -15.1967 17.7458
-20.4783 -15.1793 17.7024
-20.5794 -15.1029 17.6309
-20.691 -15.0692 17.5712
-20.7981 -15.0591 17.4988
-20.9216 -14.9325 17.3794
-20.9675 -15.2144 17.3901
-20.9965 -15.4398 17.3582
-21.0699 -15.4933 17.278
-21.071 -15.677 17.2869
-21.1418 -15.7246 17.1891
-21.1878 -15.5849 17.094
-21.2056 -15.7398 17.0469
-21.194 -16.1315 17.1182
-21.2763 -16.188 16.8925
-21.3191 -16.1064 16.7249
-21.3288 -16.2919 16.7515
-21.3393 -16.5488 16.64
-21.4114 -16.3419 16.4057
-21.4354 -16.1329 16.2817
-21.5411 -16.0522 15.699
-21.5717 -16.0117 15.4227
-21.4734 -16.0703 16.0968
-21.4978 -16.1692 15.9048
-21.6369 -15.5455 14.9573
-21.619 -15.4426 14.8066
-21.573 -15.2166 14.6755
-21.5742 -15.0555 14.7489
-21.5625 -14.9573 14.6015
-21.5465 -14.6733 14.4808
-21.498 -14.4469 14.3929
-21.6044 -15.8604 15.2106
-21.6362 -15.7427 15.0365
-21.4568 -14.5942 14.282
-21.3932 -14.3797 14.1697
-21.3415 -14.3332 14.0324
-21.2487 -14.3067 13.8949
-21.2122 -14.0396 13.7898
-21.105 -14.0357 13.6755
-21.0277 -13.8702 13.5672
-20.9477 -13.7143 13.4568
-20.9212 -13.9627 13.4481
-20.7855 -14.0755 13.3587
-20.6801 -13.9982 13.2449
-20.6288 -13.8591 13.1539
-20.6154 -13.6316 13.1285
-20.5812 -13.4122 13.1158
-20.5183 -13.2245 13.0099
-20.3336 -13.235 12.8703
-19.9812 -13.0549 12.6754
-20.1291 -13.2409 12.7413
-19.8389 -13.013 12.5558
-18.3822 -11.3935 11.9683
-19.638 -13.1304 12.4403
-19.4811 -13.0505 12.3349
-19.4176 -12.944 12.3123
-19.3409 -13.0941 12.2788
-19.2033 -13.0838 12.2026
-19.0537 -13.0279 12.1545
-18.9066 -12.9418 12.1117
-18.8157 -12.8482 12.0657
-18.7126 -13.0442 12.0404
-18.4995 -12.8219 11.9691
-18.5233 -12.5651 11.9841
-18.5176 -12.1324 11.9953
-18.3778 -12.3651 11.9383
-18.2737 -11.7898 11.9378
-18.36 -12.0487 11.9595
-18.2785 -11.5359 11.9578
-18.2579 -10.4981 12.1879
-18.2399 -10.2945 12.2782
-18.2107 -11.3368 11.954
-18.0526 -11.1555 11.9614
-18.13 -10.8145 12.0845
-18.008 -10.9477 12.0149
-18.1482 -10.6867 12.1228
-18.0961 -10.2021 12.3332
-17.9591 -10.1401 12.3986
-17.8366 -10.119 12.4424
-17.6787 -10.0928 12.4958
-17.7312 -9.87296 12.6414
-17.5823 -9.77048 12.7891
-17.3553 -9.78883 12.9069
-17.2397 -9.71899 13.0475
-17.1073 -9.74944 13.1156
-17.034 -9.68887 13.2483
-16.9002 -9.7121 13.3431
-16.8633 -9.67376 13.4301
-16.743 -9.73416 13.5071
-16.7146 -9.7405 13.6434
-16.6036 -9.87249 13.5763
-16.4815 -10.0632 13.5229
-16.3638 -10.2458 13.5323
-16.3229 -10.312 13.633
-16.2745 -10.4054 13.7078
-16.2769 -10.4237 13.8329
-16.2105 -10.6564 14.0634
-16.1968 -10.7748 14.1758
-16.2472 -10.7354 14.2952
-16.1961 -10.6729 13.913
-16.2759 -10.7758 14.4252
-16.2088 -11.005 14.5114
-16.1506 -11.3763 14.7236
-16.1269 -11.253 14.5863
-16.1378 -11.5539 14.85
-16.203 -11.5715 14.9386
-16.2115 -11.7437 15.0299
-16.2145 -11.8802 15.15
-16.4644 -12.1234 15.5337
-16.3098 -12.0876 15.3795
-16.1779 -12.0779 15.2457
-16.6266 -12.159 15.6787
-16.7976 -12.2014 15.8881
-16.9357 -12.1159 15.9562
-17.0469 -12.0723 15.9711
-17.2098 -12.1006 16.0678
-17.2667 -12.3185 16.2039
-17.3839 -12.5116 16.3459
-17.4304 -12.6628 16.4236
-17.5158 -12.7785 16.5164
-17.5711 -12.9187 16.6132
-17.7367 -12.9788 16.7159
-19.1878 -14.3223 17.6446
-19.1365 -14.4456 17.6674
-19.2553 -14.5951 17.7115
-19.3712 -14.6758 17.7482
-19.0101 -14.228 17.5801
-19.0759 -14.3005 17.6186
-19.5796 -14.771 17.7641
-19.4557 -14.7891 17.7965
-19.5165 -14.9281 17.8419
-19.5813 -15.0971 17.9026
-19.7403 -15.0734 17.888
-19.7914 -15.2751 17.9468
-19.8523 -15.5431 18.0234
-20.0419 -15.5064 17.9641
-20.1989 -15.526 17.9173
-20.262 -15.3494 17.8335
-20.3074 -15.4206 17.8379
-20.4058 -15.3825 17.7998
-20.5104 -15.3473 17.7404
-20.6116 -15.3272 17.6865
-20.7106 -15.3184 17.6273
-20.778 -15.3426 17.5706
-20.8569 -15.2707 17.4881
-20.8927 -15.5862 17.5577
-20.9748 -15.7469 17.5048
-21.0236 -15.6345 17.368
-21.0427 -15.7983 17.4327
-21.0778 -15.9418 17.3661
-21.1485 -15.9484 17.2136
-21.0927 -16.1989 17.3409
-21.1186 -16.4893 17.3231
-21.2085 -16.489 17.1026
-21.2823 -16.5374 16.9014
-21.3959 -16.6113 16.3805
-21.2696 -16.8365 16.8558
-21.3232 -16.8859 16.6531
-21.3568 -16.7689 16.533
-21.4624 -16.3691 16.1429
-21.5146 -16.2492 15.7427
-21.5464 -16.3248 15.5588
-21.5869 -16.3081 15.3114
-21.6077 -16.1287 15.1846
-21.5009 -16.4341 15.8215
-21.6321 -15.7268 14.8444
-21.584 -15.6847 14.6798
-21.581 -15.4479 14.6173
-21.5014 -15.1458 14.503
-21.5426 -15.3157 14.5485
-21.4742 -14.8997 14.3984
-21.606 -15.999 15.0497
-21.6175 -15.9522 14.9093
-21.3797 -14.8857 14.1804
-21.3648 -14.5932 14.107
-21.287 -14.5599 13.9612
-21.1931 -14.5353 13.8544
-21.1381 -14.3307 13.7416
-21.018 -14.2033 13.5736
-20.8858 -14.2155 13.4603
-20.7812 -14.3432 13.3602
-20.6867 -14.1966 13.249
-20.5061 -14.1016 13.1008
-20.4754 -13.7931 13.0336
-20.4517 -13.5007 12.9861
-20.2597 -13.4671 12.828
-19.8904 -13.2854 12.6056
-20.0732 -13.437 12.7417
-19.6975 -13.3832 12.4718
-19.5218 -13.4255 12.3546
-19.428 -13.2368 12.3175
-19.2639 -13.2937 12.1946
-19.0933 -13.2331 12.1231
-18.9209 -13.161 12.1009
-18.8212 -13.2908 12.0495
-18.6374 -13.369 12.0197
-18.4056 -13.1732 11.9528
-18.3871 -12.6331 11.9513
-18.2453 -12.8387 11.9306
-18.2891 -12.5873 11.9307
-18.1499 -12.5305 11.8971
-18.1347 -12.1234 11.9137
-18.0605 -11.8147 11.8949
-18.1198 -11.5813 11.925
-18.0493 -10.6187 12.1386
-18.1143 -10.4639 12.2127
-18.0592 -10.364 12.2552
-18.0043 -11.4137 11.9253
-17.8489 -11.3247 11.9278
-17.8492 -11.085 11.9655
-18.0004 -10.7915 12.0754
-17.8674 -10.9108 12.0278
-17.8824 -10.3432 12.2906
-17.832 -10.2187 12.3694
-17.7416 -10.2036 12.4032
-17.6234 -10.2883 12.3758
-17.4434 -10.2441 12.4546
-17.5058 -10.0891 12.5454
-17.5855 -10.0073 12.5929
-17.5247 -9.947 12.6659
-17.3999 -9.91432 12.7461
-17.1041 -9.87623 12.972
-17.1928 -10.002 12.7696
-16.9474 -9.83827 13.1051
-16.8335 -9.8157 13.232
-16.7477 -9.78814 13.3578
-16.5929 -9.92764 13.4065
-16.486 -10.1348 13.3639
-16.4014 -10.2324 13.4259
-16.2919 -10.4405 13.4045
-16.2983 -10.3697 13.5367
-16.2239 -10.5219 13.5877
-16.2021 -10.5672 13.7467
-16.0934 -10.9597 14.0923
-16.1009 -11.0417 14.2954
-16.1775 -10.9524 14.4012
-16.114 -10.8003 13.7805
-16.0933 -10.9148 13.9289
-16.0955 -11.2147 14.4596
-15.965 -11.5906 14.5891
-16.017 -11.732 14.7857
-16.0959 -11.7893 14.9218
-16.0601 -12.0758 15.0823
-16.3239 -12.2773 15.4847
-16.4511 -12.3251 15.6363
-16.525 -12.2249 15.6368
-16.1837 -12.3236 15.3703
-16.0694 -12.2808 15.2356
-16.5613 -12.2885 15.7149
-16.6518 -12.305 15.8032
-16.6988 -12.4075 15.9264
-16.8643 -12.4253 16.0448
-17.014 -12.2638 16.0627
-17.0845 -12.4109 16.1579
-17.1694 -12.512 16.242
-17.2542 -12.6453 16.3362
-17.3324 -12.768 16.4218
-19.3646 -14.7924 17.7883
-19.3527 -14.8971 17.8438
-19.4178 -15.09 17.9129
-19.4983 -15.3175 17.9945
-19.6456 -15.2549 17.9566
-19.6596 -15.4545 18.0277
-19.6991 -15.6964 18.1055
-19.8704 -15.859 18.0988
-19.9621 -15.7135 18.0378
-20.0821 -15.7233 18.0095
-20.1962 -15.7455 18.0119
-20.3156 -15.6214 17.9091
-20.4319 -15.5359 17.8356
-20.5059 -15.5737 17.8023
-20.6064 -15.5913 17.755
-20.7134 -15.5699 17.6873
-20.7932 -15.5152 17.5967
-20.755 -15.8045 17.7397
-20.8384 -15.8826 17.6988
-20.9107 -15.8424 17.6238
-20.9327 -15.9216 17.5991
-20.9709 -16.0037 17.5464
-20.996 -16.2412 17.528
-21.04 -16.4356 17.4932
-21.0217 -16.6694 17.515
-21.0652 -16.7417 17.3834
-21.1462 -16.7386 17.254
-21.2038 -16.7886 17.0695
-21.3695 -16.8168 16.3999
-21.3909 -16.7674 16.2592
-21.4259 -16.6247 16.1719
-21.194 -17.0831 17.0207
-21.284 -17.085 16.7619
-21.3468 -17.0665 16.5246
-21.3576 -16.9165 16.4911
-21.4636 -16.5774 16.0056
-21.5454 -16.6683 15.5607
-21.5709 -16.4939 15.3799
-21.5831 -16.4743 15.2258
-21.6071 -16.3453 15.1084
-21.6264 -16.1883 15.0069
-21.5058 -16.6611 15.8437
-21.6016 -15.9063 14.7933
-21.5962 -15.8019 14.7564
-21.5821 -15.8823 14.6947
-21.5445 -15.8643 14.558
-21.5076 -15.6084 14.471
-21.5323 -15.4294 14.5173
-21.4249 -15.125 14.3182
-21.4792 -15.3479 14.414
-21.6086 -16.08 14.9619
-21.6181 -16.1373 14.8775
-21.6016 -16.0366 14.8097
-21.3515 -15.161 14.1371
-21.2687 -15.0235 13.9858
-21.3046 -14.7755 14.022
-21.2251 -14.7711 13.88
-21.1281 -14.6622 13.7494
-21.0499 -14.4976 13.6379
-20.9358 -14.4953 13.4859
-20.7774 -14.6018 13.3357
-20.6063 -14.4172 13.1984
-20.2862 -13.917 12.9081
-20.3967 -14.3642 13.0011
-20.2771 -14.1622 12.9248
-20.3275 -13.6807 12.9132
-20.135 -13.6666 12.7928
-19.7854 -13.5562 12.5707
-19.9632 -13.5311 12.6835
-19.6294 -13.541 12.4492
-19.518 -13.6634 12.3717
-19.3663 -13.5967 12.2644
-19.3625 -13.4197 12.2604
-19.2366 -13.5114 12.1861
-19.1162 -13.4237 12.1154
-18.9704 -13.3573 12.0772
-18.8491 -13.4629 12.0793
-18.737 -13.5876 12.0803
-18.5279 -13.564 12.013
-18.4416 -13.4089 11.9675
-18.3248 -13.3678 11.9679
-18.2121 -13.3427 11.9157
-18.1768 -13.1407 11.9131
-18.0513 -13.0322 11.8845
-18.0486 -12.79 11.8878
-18.0065 -12.6222 11.8693
-17.942 -12.4187 11.867
-17.9314 -12.0951 11.8662
-18.0023 -11.9612 11.8831
-17.8887 -11.8316 11.8932
-17.958 -11.6105 11.899
-17.8357 -10.7387 12.0962
-17.9484 -10.5218 12.1984
-17.8971 -11.4756 11.907
-17.6873 -11.206 11.9551
-17.8003 -11.5663 11.9091
-17.6947 -11.3987 11.9387
-17.6884 -10.9737 12.0075
-17.7486 -10.2991 12.3416
-17.7475 -10.5685 12.1969
-17.6743 -10.4283 12.2858
-17.4719 -10.4518 12.2953
-17.2958 -10.4138 12.3711
-17.1881 -10.2841 12.5193
-17.3609 -10.0833 12.6154
-17.4935 -10.0368 12.6068
-17.011 -10.041 12.8552
-16.8996 -9.99081 12.9705
-17.1785 -10.1425 12.6446
-17.0046 -10.2138 12.6984
-16.7765 -9.95963 13.0975
-16.6621 -9.95141 13.2384
-16.5658 -10.0696 13.2922
-16.4952 -10.2362 13.2191
-16.4069 -10.3245 13.302
-16.3331 -10.5201 13.2125
-16.2291 -10.6821 13.2515
-16.1663 -10.7301 13.429
-16.1293 -10.7939 13.6116
-16.1656 -10.6599 13.6762
-15.9689 -11.2735 14.2437
-15.9981 -11.1412 14.0041
-15.9508 -11.2529 14.1311
-15.9543 -11.3922 14.3971
-16.0204 -11.0568 13.7248
-16.0338 -11.0321 13.8678
-15.8419 -12.0291 14.7445
-15.8257 -11.7139 14.4469
-15.7896 -11.9859 14.5819
-15.9578 -12.0502 14.8936
-15.8913 -12.3298 15.0135
-15.9354 -12.4692 15.1813
-16.3214 -12.427 15.5637
-16.2527 -12.3789 15.4699
-16.5762 -12.4283 15.7986
-16.4358 -12.5082 15.7093
-16.0509 -12.4508 15.3094
-16.1169 -12.5367 15.4166
-16.217 -12.4799 15.4884
-16.6465 -12.5048 15.9086
-16.7333 -12.5426 15.9989
-16.8777 -12.5758 16.0958
-16.9995 -12.5083 16.1463
-16.9846 -12.4113 16.1122
-17.0268 -12.6506 16.2077
-17.1563 -12.7532 16.323
-19.5423 -15.5757 18.0981
-19.6035 -15.7795 18.1691
-19.7322 -15.9054 18.1748
-20.0367 -16.0039 18.1032
-20.0021 -15.857 18.0533
-19.8867 -16.1674 18.2159
-20.111 -15.8725 18.0507
-20.2552 -15.9227 18.0476
-20.398 -15.719 17.9095
-20.4706 -15.8679 17.9332
-20.6082 -15.8571 17.8208
-20.6277 -16.122 17.8982
-20.7489 -16.1015 17.8146
-20.8589 -16.0928 17.7033
-20.9109 -16.2736 17.6659
-20.9287 -16.3772 17.6342
-20.9688 -16.4624 17.6155
-20.9929 -16.5542 17.5772
-20.9463 -16.8874 17.6366
-21.0161 -16.9045 17.4818
-20.9453 -16.6501 17.649
-21.0767 -16.887 17.3489
-21.122 -16.974 17.2259
-21.3986 -16.9673 16.2611
-21.4558 -16.7759 16.0421
-21.1239 -17.2274 17.2618
-21.1976 -17.3018 17.0605
-21.2595 -17.2818 16.8523
-21.5076 -16.8115 15.7981
-21.5697 -16.6233 15.2672
-21.5855 -16.5268 15.0742
-21.5937 -16.0033 14.7334
-21.5837 -16.0104 14.635
-21.5041 -15.8301 14.4092
-21.567 -16.004 14.5442
-21.5275 -15.9932 14.4443
-21.4252 -15.5035 14.2591
-21.4371 -15.731 14.2798
-21.4019 -15.3059 14.2425
-21.6066 -16.1418 14.7252
-21.287 -15.2172 14.025
-21.3412 -15.3748 14.0747
-21.2361 -15.2788 13.9012
-21.1298 -15.0148 13.757
-21.0161 -14.7553 13.6172
-20.8917 -14.7874 13.4592
-20.7666 -14.8045 13.3285
-20.61 -14.6901 13.1743
-20.5012 -14.5374 13.0785
-20.1561 -14.0402 12.8229
-20.0792 -13.8826 12.7651
-20.3785 -14.5335 12.9671
-20.2342 -14.4251 12.8622
-20.2176 -14.2911 12.8553
-20.1022 -14.1649 12.7957
-19.9411 -13.7175 12.6839
-19.7792 -13.7818 12.5886
-19.6577 -13.6848 12.4849
-19.6164 -13.8952 12.4536
-19.3379 -13.8396 12.2703
-19.2021 -13.6924 12.191
-19.0843 -13.5881 12.1506
-18.994 -13.5042 12.0857
-18.9241 -13.6129 12.1226
-18.8443 -13.7439 12.114
-18.6432 -13.7323 12.0537
-18.4233 -13.7224 11.9929
-18.3086 -13.5295 11.9478
-18.0797 -13.5258 11.8981
-18.0074 -13.296 11.8809
-17.9033 -13.1422 11.8713
-17.929 -12.962 11.8854
-17.8828 -12.7586 11.8869
-17.7696 -12.6137 11.8898
-17.7792 -12.405 11.8841
-17.8233 -12.2357 11.8769
-17.7542 -12.0224 11.8823
-17.7176 -11.7776 11.9065
-17.567 -10.7625 12.0992
-17.5265 -11.3595 11.9848
-17.5607 -11.1406 11.9934
-17.6259 -11.58 11.9519
-17.4878 -11.0092 12.0386
-17.5818 -10.573 12.2103
-17.447 -10.6231 12.1875
-17.2837 -10.6073 12.2794
-17.1312 -10.5107 12.4192
-17.0153 -10.4306 12.5521
-16.8829 -10.131 12.8551
-16.7447 -10.1508 12.9585
-16.8675 -10.4391 12.668
-16.799 -10.2946 12.7978
-16.6526 -10.1053 13.1045
-16.5896 -10.1189 13.2002
-16.566 -10.2484 13.1081
-16.4727 -10.3961 13.0844
-16.4109 -10.4066 13.1709
-16.3772 -10.5859 13.049
-16.2782 -10.7036 13.1081
-16.1498 -10.8665 13.2801
-16.2043 -10.9099 13.1246
-16.0985 -10.8949 13.517
-16.0771 -10.9983 13.4083
-16.0714 -10.9416 13.5992
-15.8718 -11.4814 14.218
-15.8745 -11.5234 14.3247
-15.9091 -11.2781 13.918
-15.8677 -11.4273 14.089
-15.9105 -11.3379 13.8045
-16.0448 -11.0602 13.5666
-15.9451 -11.2958 13.6607
-15.7522 -12.3412 14.7704
-15.8175 -12.3003 14.8777
-15.7511 -12.2118 14.675
-15.7927 -11.7341 14.3155
-15.7124 -12.0625 14.4446
-15.6939 -12.2769 14.5991
-15.7759 -12.5126 14.9783
-15.8379 -12.5176 15.0699
-15.7646 -12.7073 15.0968
-15.8744 -12.724 15.2842
-16.0004 -12.615 15.355
-16.2883 -12.5693 15.6201
-16.5852 -12.5911 15.8851
-16.4109 -12.6605 15.758
-16.0984 -12.6834 15.4911
-16.1846 -12.6057 15.528
-16.7711 -12.6859 16.0582
-20.129 -16.2128 18.1317
-19.8278 -16.3718 18.3356
-19.9897 -16.4704 18.3002
-20.0911 -16.4126 18.2168
-20.3428 -16.2271 18.0804
-20.5088 -16.1096 17.9686
-20.5002 -16.4021 18.06
-20.6547 -16.3925 17.9469
-20.7668 -16.3006 17.8481
-20.8246 -16.4025 17.8023
-20.8892 -16.526 17.7275
-20.9468 -17.1242 17.6163
-20.9631 -17.0039 17.5677
-20.8802 -16.7874 17.7714
-20.8577 -17.0212 17.7898
-21.0072 -17.0609 17.5103
-21.0569 -17.0484 17.3843
-21.4478 -16.9646 15.9265
-21.1251 -17.4053 17.3098
-21.1827 -17.4242 17.1668
-21.0435 -17.1984 17.4664
-21.0818 -17.3372 17.4108
-21.5683 -16.1142 14.549
-21.459 -15.9227 14.3044
-21.3309 -15.6288 14.0868
-21.2584 -15.4761 13.9612
-21.1678 -15.441 13.8673
-21.1233 -15.3147 13.7633
-20.9758 -15.002 13.5695
-21.0486 -15.2162 13.6373
-20.4731 -14.6317 13.0352
-20.0002 -14.016 12.7387
-19.918 -13.8763 12.6889
-20.0217 -14.2917 12.7232
-19.9426 -14.1206 12.6931
-19.8312 -13.971 12.626
-19.794 -14.1286 12.5694
-19.62 -14.0915 12.4355
-19.4698 -14.0291 12.3203
-19.2898 -14.0474 12.215
-19.1441 -13.9602 12.1616
-19.1414 -13.8303 12.1684
-19.0297 -13.7347 12.1483
-18.9571 -13.8891 12.1161
-18.7555 -13.8518 12.0842
-18.563 -13.8728 12.0244
-18.3358 -13.8589 11.9769
-18.1781 -13.7308 11.9413
-17.9361 -13.6909 11.9161
-17.8724 -13.5133 11.8932
-17.8011 -13.3247 11.8687
-17.751 -13.0698 11.8566
-17.725 -12.8356 11.8792
-17.6207 -12.7446 11.8944
-17.6498 -12.5076 11.9012
-17.6894 -12.2677 11.9029
-17.6529 -11.914 11.9149
-17.5469 -12.0899 11.9347
-17.5615 -11.8064 11.9394
-17.3652 -10.7789 12.1789
-17.3985 -10.9095 12.0965
-17.4284 -11.6311 11.996
-17.2557 -11.4356 12.0672
-17.4264 -11.2012 12.0314
-17.2929 -11.1088 12.094
-17.1662 -10.8303 12.2565
-17.1143 -10.6828 12.3534
-17.0222 -10.5471 12.4893
-17.027 -10.636 12.4399
-16.9156 -10.6063 12.5387
-16.6451 -10.3804 12.8807
-16.6261 -10.2506 13.0117
-16.7702 -10.5879 12.6345
-16.7187 -10.4907 12.7474
-16.5448 -10.3891 12.9891
-16.459 -10.5199 12.9682
-16.4127 -10.6981 12.8751
-16.3107 -10.8792 12.9558
-16.0972 -11.0758 13.2382
-16.2038 -11.1041 12.9938
-16.1446 -11.1101 13.1089
-16.0255 -11.2296 13.3758
-16.0052 -11.2111 13.5041
-15.8083 -11.6604 14.1992
-15.8178 -11.515 13.9186
-15.8147 -11.5106 14.014
-15.776 -11.6871 14.1169
-15.8091 -11.5549 13.794
-15.9195 -11.4138 13.5547
-15.8654 -11.4731 13.6709
-15.6927 -12.3936 14.6992
-15.672 -12.549 14.7842
-15.7307 -12.4882 14.8691
-15.7217 -11.9446 14.2548
-15.6111 -12.3156 14.3813
-15.6122 -12.4326 14.5362
-15.6297 -12.5304 14.6703
-15.6784 -12.6666 14.917
-15.6134 -12.8705 14.9583
-15.6584 -12.9281 15.1169
-15.7728 -12.8552 15.2292
-15.9778 -12.7695 15.4394
-16.2346 -12.7108 15.6391
-20.2086 -16.4029 18.1643
-19.9282 -16.5693 18.3873
-20.0501 -16.6556 18.3368
-20.1585 -16.6208 18.2643
-20.1937 -16.5113 18.2186
-20.3131 -16.5516 18.1734
-20.4583 -16.7362 18.1212
-20.5688 -16.6098 18.0515
-20.6658 -16.6565 17.9903
-20.7325 -16.498 17.9008
-20.7828 -16.7055 17.8845
-20.8719 -17.2798 17.7692
-20.9906 -17.356 17.5574
-20.8201 -16.8806 17.8497
-20.7588 -16.9601 17.9099
-20.7695 -17.1447 17.9147
-21.0876 -17.4756 17.4204
-21.1556 -17.5346 17.2728
-19.5471 -14.1687 12.3691
-19.4121 -14.1751 12.2662
-19.1338 -14.0909 12.1496
-19.2309 -14.2013 12.1587
-18.9767 -14.0462 12.0892
-18.7553 -13.9852 12.0366
-18.5716 -13.9838 11.9843
-18.4379 -13.9472 11.9749
-18.2435 -13.9793 11.9354
-18.1891 -13.8661 11.9409
-18.0131 -13.8672 11.918
-17.7742 -13.802 11.877
-17.7806 -13.6565 11.8835
-17.6848 -13.5351 11.8849
-17.6294 -13.3321 11.8718
-17.5695 -13.1713 11.8674
-17.5945 -12.9699 11.8616
-17.4965 -12.8724 11.9024
-17.4704 -12.6477 11.9381
-17.5387 -12.3693 11.9478
-17.4508 -12.2739 11.9618
-17.3264 -12.2094 11.9955
-17.373 -11.9131 11.9826
-17.2741 -10.9315 12.1593
-17.2135 -11.7612 12.0362
-17.0645 -11.6915 12.1018
-16.9894 -11.5374 12.1468
-17.0915 -11.2861 12.1503
-17.1081 -11.0506 12.194
-17.0373 -10.9424 12.2785
-16.9415 -10.8293 12.3893
-16.7381 -10.7428 12.5209
-16.6025 -10.5604 12.7851
-16.5207 -10.5431 12.8705
-16.6319 -10.6577 12.6574
-16.413 -10.9705 12.7411
-16.5081 -10.7179 12.742
-16.2726 -11.1967 12.8322
-16.094 -11.2209 13.1679
-16.0511 -11.2633 13.2597
-16.1741 -11.3036 12.9442
