-10.9239 -0.38952 21.1744
-13.2981 -2.2265 17.5135
-13.6191 -2.36566 17.4817
-14.9416 -3.61565 15.3738
-14.8876 -3.67377 15.0008
4.73127 2.89946 24.5838
5.8721 1.96999 24.1264
5.98289 1.96085 24.1691
6.472 2.41905 23.992
5.41164 -3.42192 26.095
5.24595 -3.52151 26.3381
4.99001 -3.50154 26.2601
3.8236 -2.06325 25.7805
3.82761 -1.92359 25.5514
3.89431 -1.91885 25.5038
3.76119 -1.83266 25.4542
3.2675 -1.11899 24.204
4.38181 -0.557731 25.0389
5.62273 1.37038 24.2519
5.43718 1.27475 24.1578
3.5773 1.97157 24.741
3.47328 1.81739 24.7822
-3.29401 -0.809189 25.103
-3.44306 0.845535 24.5635
-5.3616 0.658852 23.3166
-9.66001 -0.85476 21.5074
-10.2485 -0.297599 21.3723
-10.4039 -0.277353 21.388
-10.5156 -0.259361 21.4743
-10.9669 -0.346858 21.3571
-11.1955 -0.961887 19.9031
-11.2138 -1.00636 19.7239
-11.259 -1.08867 19.3204
-11.3048 -1.14614 19.2516
-13.1138 -2.25364 17.6688
-13.4307 -2.31231 17.589
-13.5068 -2.30857 17.5168
-14.3436 -2.93647 16.6986
-14.9303 -3.66815 15.1619
-14.9116 -3.73284 14.8711
-14.9008 -3.74976 14.574
-14.8879 -3.76975 14.355
-14.8646 -3.78699 14.1432
-14.901 -3.88626 13.8507
-11.7538 -1.80625 3.3262
4.78949 2.82474 24.5446
4.7775 2.52846 24.5122
5.62727 1.79021 24.1671
5.74138 1.8703 24.1499
5.4283 -3.51575 26.2263
5.34193 -3.48358 26.2396
4.0242 -2.44061 26.1382
3.94202 -2.23752 26.0325
3.85045 -1.88334 25.4755
3.63869 -1.83917 25.4152
4.28149 -0.551331 24.9702
4.50676 -0.557529 25.2176
5.70662 1.44655 24.2915
5.51879 1.27417 24.2242
3.45513 1.80816 24.831
-2.84543 -1.03856 24.9852
-4.62682 1.03562 23.8023
-4.70332 1.02893 23.8135
-5.25929 0.725977 23.3497
-10.1862 -0.353635 21.393
-10.339 -0.280991 21.4197
-10.6106 -0.237241 21.654
-11.2717 -1.11568 19.4322
-13.6111 -2.38242 17.5953
-13.7207 -2.44052 17.5701
-14.4531 -2.92919 16.9163
-15.0163 -3.65938 15.5098
-14.987 -3.69831 15.3129
-14.9334 -3.74389 14.993
-14.9325 -3.79691 14.7002
3.10332 6.83415 24.3749
4.73337 2.71787 24.5602
5.58404 1.67462 24.1583
5.34682 -3.5497 26.3849
5.24259 -3.61642 26.5138
3.98734 -2.31666 26.1049
3.82852 -2.227 26.0382
3.74701 -1.91031 25.5439
4.23023 -0.514722 24.8463
4.32551 -0.616153 25.1851
4.45694 -0.574952 25.168
5.70522 1.51402 24.2316
5.54074 1.36155 24.1874
5.47633 1.39282 24.1532
5.4928 1.48422 24.1504
3.65817 2.23145 24.8278
3.58971 2.14723 24.8237
3.46773 1.881 24.8526
-3.49518 -0.881405 25.3675
-3.48814 0.938074 24.6514
-4.45601 1.15343 24.0108
-10.3196 -0.298417 21.5289
-10.4424 -0.257125 21.524
-10.7921 -0.210703 21.8143
-11.252 -0.999073 19.9955
-11.2552 -1.04466 19.8297
-11.2685 -1.10654 19.6366
-15.0057 -3.31836 16.2359
-15.0545 -3.62361 15.714
-14.9717 -3.76087 15.1347
-14.9475 -3.80708 14.8459
-14.9353 -3.82219 14.5269
-14.9298 -3.80926 14.4266
-14.9615 -3.88819 14.0594
-15.0005 -4.01606 13.5629
5.69508 1.71665 24.156
5.83298 1.85444 24.1395
4.01917 -2.52978 26.3794
3.96758 -2.38091 26.2405
3.89791 -2.29505 26.146
4.42245 -0.625382 25.2501
4.48665 -0.604667 25.2896
4.70216 -0.715339 25.9431
5.61638 1.43723 24.1974
5.56473 1.56025 24.1574
3.67319 2.33149 24.8772
3.52759 2.0565 24.8484
3.48287 1.98124 24.8714
3.49599 2.0001 25.0275
3.74012 -0.0898589 24.7333
-0.360953 -1.13704 24.543
-3.05347 -1.10724 25.2006
-3.55668 1.10879 24.5926
-5.30094 0.698495 23.4566
-5.4509 0.451495 23.5872
-5.51107 0.382387 23.4304
-9.92368 -0.830252 21.8025
-10.4646 -0.266939 21.6632
-10.6934 -0.226558 21.8531
-11.1808 -0.408025 21.4327
-11.2261 -0.900483 20.224
-11.2632 -0.966334 20.1428
-13.7753 -2.50855 17.6734
-15.1082 -3.39463 16.1543
-15.107 -3.56412 15.9032
-15.0564 -3.70899 15.6092
-15.0332 -3.74138 15.4228
-15.0047 -3.77626 15.268
-14.9459 -3.86478 14.2748
-15.0068 -4.0143 13.7648
-15.098 -4.14901 13.3158
-14.6907 -4.05978 10.1108
5.65109 1.60901 24.1648
5.82842 1.73776 24.1755
5.34426 -3.64381 26.5225
5.26852 -3.74801 26.6736
4.05498 -2.7123 26.5756
4.2526 -0.615288 25.2128
4.39085 -0.687905 25.4105
4.47374 -0.654379 25.4258
5.80515 1.62413 24.2419
3.8424 2.72675 24.9726
3.61131 2.27238 24.8785
3.55066 2.22785 24.9232
3.46649 1.94849 24.9186
3.84065 -0.0401515 25.1018
-0.200614 -1.18541 24.6575
-2.49727 -1.35074 25.4308
-3.52574 1.05424 24.7522
-3.55601 1.14513 24.719
-3.60828 1.17183 24.5496
-4.51442 1.1972 24.0783
-4.6149 1.141 24.0284
-6.63039 -0.486749 22.1826
-10.5713 -0.263345 21.7908
-10.8049 -0.204595 21.938
-10.9186 -0.187244 21.9743
-11.2785 -0.950595 20.3056
-11.2848 -1.03501 20.0785
-13.5201 -2.50218 17.7833
-13.9473 -2.59956 17.6932
-15.1456 -3.32086 16.3207
-15.1597 -3.49432 16.08
-15.1248 -3.67791 15.8308
-15.0081 -3.99236 14.1351
-15.1033 -4.14273 13.5092
3.646 3.78754 25.2672
7.22774 1.87814 25.0669
7.67696 -5.92252 26.7011
5.16087 -3.7968 26.7864
4.07285 -2.94956 26.9745
4.02611 -2.73467 26.7582
3.98672 -2.60592 26.5871
3.93605 -2.44059 26.3634
4.30238 -0.684488 25.3915
5.68447 1.56541 24.1894
3.62276 2.42239 24.9541
3.48952 2.07665 24.9379
1.44175 -1.66819 25.1286
-3.61223 1.2352 24.7025
-5.28508 0.674941 23.7138
-5.41504 0.415425 23.7916
-10.4816 -0.302118 21.7716
-10.6409 -0.270039 21.9306
-10.7594 -0.226516 21.9963
-11.0685 -0.159412 22.0383
-11.2789 -0.806212 20.7024
-11.2726 -0.865013 20.5591
-11.2828 -0.91614 20.4466
-11.2936 -1.0307 20.1988
-13.9027 -2.60098 17.7639
-15.1544 -3.2867 16.4367
-15.2397 -3.41764 16.2786
-15.1768 -3.57956 16.003
-14.9894 -4.01108 14.3557
-15.1583 -4.20525 13.3385
-15.2174 -4.27149 13.1958
3.62579 3.65538 25.271
4.08295 -3.01546 27.1048
4.04609 -2.84363 26.9047
3.95625 -2.50717 26.4709
3.947 -0.368036 24.8428
4.36594 -0.770024 25.6352
4.4511 -0.7273 25.566
4.5231 -0.8084 25.8535
3.51277 2.21362 25.0332
3.88981 1.17067 25.9082
1.30831 -1.63979 25.056
-3.57352 1.18059 24.8536
-3.66546 1.27548 24.6486
-4.54233 1.2492 24.2121
-5.18315 0.778979 23.9034
-5.45247 0.377729 23.6561
-6.2931 -0.469271 22.8984
-6.87929 -0.545597 22.0904
-10.4484 -0.55371 22.04
-10.8795 -0.188778 22.0603
-10.9998 -0.15471 22.0771
-11.3043 -0.184083 22.0372
-11.3692 -0.684036 21.0973
-11.3546 -0.824619 20.7833
-11.3088 -0.996465 20.4284
-13.0477 -2.91922 18.316
-14.0356 -2.66503 17.7972
-14.1648 -2.73584 17.8003
-14.8166 -3.04702 17.1872
-15.2446 -3.31209 16.4557
-15.2359 -3.5367 16.1496
-15.2085 -3.63592 16.0447
-15.1163 -3.81291 15.7689
-15.0475 -4.08382 13.9139
-15.1452 -4.2409 13.5399
-15.2059 -4.29011 13.3425
-15.3521 -4.35798 12.9914
2.96699 4.995 25.3168
3.06649 4.83398 25.3209
3.53461 3.81699 25.314
3.64883 3.47258 25.2491
7.54426 -5.85048 26.7826
7.1972 -5.62993 26.7945
4.02134 -2.90422 27.0624
3.95957 -2.7673 26.8986
3.9364 -2.66561 26.7242
3.80733 2.97624 25.0603
3.62872 2.7478 25.0938
3.61816 2.58768 25.0206
3.55743 2.38324 25.0298
3.54019 2.37413 25.1284
3.99177 -0.229077 25.5786
3.95505 -0.26329 25.3393
-0.345799 -1.21695 25.0116
-3.63482 1.31971 24.8242
-3.6872 1.36431 24.7737
-4.47464 1.35377 24.3682
-5.27515 0.683171 23.8655
-5.3671 0.444376 23.9626
-9.58331 -1.10329 22.2028
-10.7348 -0.276858 22.0761
-10.8372 -0.223172 22.1169
-10.944 -0.166853 22.0652
-11.0845 -0.127404 22.1604
-11.1682 -0.107133 22.1697
-11.423 -0.767429 21.0388
-11.4018 -0.833798 20.8981
-11.3313 -0.881032 20.6707
-11.3214 -0.939238 20.5496
-11.3174 -1.03301 20.3148
-13.9385 -2.65341 17.8466
-15.3276 -3.38163 16.4408
-15.1745 -3.73076 15.9482
-15.0413 -3.90699 15.5129
-15.0202 -4.11851 14.1969
-15.3306 -4.38321 13.1274
-15.5055 -4.47195 12.807
2.4841 5.4434 25.302
3.06012 4.71113 25.356
3.18988 4.47762 25.3645
3.31557 4.24059 25.3569
3.41735 4.02305 25.3538
3.53781 3.60838 25.3336
3.65379 3.23242 25.2082
4.06314 -3.05122 27.2283
4.05135 -2.98085 27.1515
4.09349 -0.54127 25.2397
4.30609 -0.82389 25.7685
4.458 -0.906957 25.9666
4.52223 -0.994151 26.1531
4.5784 -1.0679 26.3914
3.70764 3.05295 25.1237
3.63625 2.99186 25.1724
-3.61865 1.32881 24.9309
-3.95841 1.49409 24.7326
-4.45268 1.44232 24.5308
-5.2321 0.720737 23.9823
-6.8764 -0.564278 22.4823
-10.9341 -0.191706 22.1863
-10.9935 -0.157391 22.1521
-11.2919 -0.0839055 22.2785
-11.4887 -0.535631 21.5536
-11.451 -0.707466 21.1784
-11.3768 -0.902608 20.7782
-11.3063 -1.16965 20.1807
-14.115 -2.74971 17.9156
-15.3455 -3.31084 16.5741
-15.3038 -3.50993 16.2939
-15.2756 -3.59429 16.1928
-15.2424 -3.69705 16.127
-15.1593 -3.83195 15.9669
-15.4762 -4.47364 12.935
-15.5896 -4.53304 12.652
2.20005 5.63101 25.2744
2.85994 5.0762 25.3325
2.94947 4.87882 25.3582
3.44052 3.83286 25.3896
3.58084 3.37757 25.2853
4.07944 -3.15481 27.3017
4.0135 -2.96741 27.1839
3.91294 -2.86463 27.0739
4.02662 -0.445562 25.0885
4.14475 -0.630741 25.3692
4.19373 -0.709669 25.5365
4.21747 -0.816107 25.8189
4.35893 -0.830874 25.7792
4.51456 -1.0648 26.2759
3.60075 2.84459 25.2035
3.59323 2.61554 25.0832
3.56312 2.53958 25.1251
3.55412 2.48719 25.1784
-3.72909 -1.27329 25.9915
-3.61687 1.41766 25.0873
-3.66816 1.4244 24.9007
-4.55124 1.3865 24.4854
-5.09417 0.877258 24.1133
-5.17705 0.788896 24.0947
-10.6186 -0.828173 22.5177
-10.7198 -0.346624 22.1516
-11.1057 -0.126853 22.2593
-11.1793 -0.0988512 22.2513
-11.5022 -0.160545 22.1741
-11.4138 -0.326425 21.84
-11.5096 -0.705296 21.2966
-11.4844 -0.786892 21.1582
-11.4571 -0.859953 21.0241
-14.2974 -2.82748 18.0072
-15.3552 -3.266 16.7252
-15.4082 -3.37639 16.5656
-15.3704 -3.46752 16.4384
-14.9431 -4.20563 15.1967
-15.6338 -4.56435 12.767
-15.6311 -4.55346 12.6976
-15.3498 -4.46552 9.17783
2.26534 5.43648 25.3367
2.55016 5.27477 25.3422
2.83192 5.01588 25.3621
2.91063 4.80042 25.4339
3.31557 4.12506 25.4173
3.36051 3.98984 25.4383
3.59972 3.25313 25.2693
4.0909 -3.35624 27.5748
4.04193 -3.09634 27.343
3.97307 -2.92255 27.1344
4.12012 -0.617123 25.3938
4.15354 -0.67058 25.4904
4.17252 -0.731849 25.6269
4.30117 -0.882078 25.9029
4.39892 -0.982858 26.0497
4.43835 -1.03689 26.1813
4.48391 -1.13987 26.4352
4.55835 -1.1374 26.4922
4.60584 -1.21126 26.6928
3.60285 3.02227 25.2993
3.58682 2.68915 25.1498
3.57421 2.6044 25.2324
4.05388 -0.547776 25.5754
4.01576 -0.465854 25.3708
3.99672 -0.419574 25.2445
-3.64595 1.47743 25.0146
-3.7267 1.47832 24.8694
-4.46974 1.52994 24.6698
-4.53682 1.47192 24.601
-11.0259 -0.163829 22.2471
-11.2482 -0.0724657 22.3733
-11.3756 -0.979233 20.7667
-14.175 -2.84086 18.0754
-15.4072 -3.32314 16.6782
-15.3298 -3.60665 16.3456
-14.9642 -4.10513 15.3218
-15.8 -4.65989 12.5867
1.9618 5.61503 25.3039
2.65132 5.12378 25.3894
2.86217 4.9164 25.3868
3.56926 3.24878 25.3297
3.60928 3.1515 25.2543
6.88553 1.5508 25.4261
4.03132 -3.16174 27.4462
4.06277 -3.16589 27.3711
4.00033 -3.01748 27.2782
3.94699 -2.95594 27.1996
4.12043 -0.716969 25.7364
4.25273 -0.904355 25.9749
4.43508 -1.0969 26.315
4.52009 -1.19677 26.5959
4.60023 -1.27373 26.8193
3.5923 2.85774 25.2877
3.57653 2.7373 25.2235
-0.28713 -1.2809 25.4807
-4.05937 -0.376822 26.0311
-4.07129 -0.268109 25.9567
-3.62814 1.55116 25.1197
-3.71071 1.56934 24.986
-5.07006 0.939913 24.2544
-5.11619 0.871079 24.2631
-5.19632 0.75041 24.2198
-5.27874 0.549014 24.2162
-11.4013 -0.0216774 22.4332
-11.5877 -0.117803 22.257
-11.6114 -0.5837 21.6396
-11.5721 -0.718739 21.4019
-11.5312 -0.804424 21.2799
-11.384 -1.03031 20.8181
-14.3901 -2.92335 18.1688
-15.4495 -3.22506 17.0792
-15.4415 -3.29919 16.8162
-15.4737 -3.37521 16.7257
-15.4478 -3.44938 16.5863
-15.0756 -4.32803 13.9999
-15.9574 -4.78042 12.4066
-14.9034 -4.56198 5.64538
2.41123 5.26013 25.4144
2.76314 4.97689 25.4252
3.45549 3.66391 25.5583
7.82712 -1.67593 27.915
4.01204 -3.25591 27.6382
3.96768 -3.06656 27.3659
3.65057 -2.74005 26.8144
4.03899 -0.504164 25.3066
4.11637 -0.657339 25.5723
4.1673 -0.780479 25.9043
4.20285 -0.873023 26.0135
4.31598 -0.951073 26.0211
4.33057 -1.02166 26.1594
4.373 -1.06906 26.2785
4.36933 -1.12587 26.427
3.5682 2.64399 25.1809
4.11599 -0.667521 25.8828
-4.10662 -0.482395 26.1916
-4.11355 -0.182342 25.9542
-4.1026 -0.0269509 25.8674
-3.61501 1.51015 25.1688
-6.31012 -0.530962 23.5223
-11.0766 -0.209878 22.4296
-11.3945 -0.00501303 22.5311
-11.5992 -0.663103 21.5149
-13.8925 -3.02746 18.2396
-15.4854 -3.21811 17.2821
-15.4915 -3.27052 16.9779
-15.4154 -3.5303 16.4965
-16.0698 -4.84482 12.4675
-16.1432 -4.90455 12.3222
1.64904 5.73387 25.3094
2.18193 5.40239 25.4059
3.09213 4.44945 25.5333
3.58033 3.14828 25.4183
7.72235 -5.78741 27.8396
4.06569 -3.39157 27.8095
3.88893 -3.09533 27.4555
4.07924 -0.604183 25.4912
4.25215 -0.958406 26.0973
4.41727 -1.20193 26.5756
4.44766 -1.2571 26.7073
4.48728 -1.29564 26.845
4.57293 -1.3472 26.963
4.67699 -1.36123 27.0655
3.59106 2.76079 25.2983
0.581076 -1.46485 25.1857
-0.652439 -1.28309 25.3973
-3.65282 1.65253 25.1045
-4.67638 1.48363 24.7091
-4.68943 1.38605 24.6218
-4.93284 1.0905 24.5755
-5.15423 0.758324 24.3619
-7.25084 -0.537624 22.8928
-11.2732 -0.0679178 22.4897
-11.5247 0.0420148 22.5652
-11.6135 -0.0403105 22.3804
-11.7119 -0.213603 22.2087
-11.7568 -0.418345 22.0376
-11.6389 -0.676229 21.5993
-11.6053 -0.729185 21.4905
-11.5768 -0.804954 21.4059
-14.543 -2.99082 18.2603
-15.5272 -3.33928 16.8981
-15.4932 -3.45419 16.7092
-15.4639 -3.5275 16.623
-15.9306 -4.78982 12.607
-11.5485 -1.54301 2.31111
7.51771 -5.80855 27.6806
3.99467 -3.31913 27.8095
3.89032 -3.03392 27.3321
4.17144 -0.79886 26.0406
4.23452 -0.91177 26.2164
4.30175 -1.03963 26.3207
4.35339 -1.1365 26.6152
4.6733 -1.44136 27.2065
-4.17891 -0.358777 26.1768
-4.1667 -0.238131 26.0486
-4.18802 -0.110974 25.9679
-4.12883 0.105567 25.8497
-3.72214 1.69673 25.0515
-5.07887 0.874765 24.4293
-7.3465 -0.56339 22.7866
-9.11145 -1.12267 22.4616
-11.1527 -0.221416 22.5391
-11.3975 -0.024562 22.6252
-11.545 0.0498527 22.6904
-11.6556 0.0513443 22.5558
-11.7529 -0.00264746 22.4864
-11.7964 -0.102519 22.399
-11.7426 -0.534976 21.8927
-11.6918 -0.601682 21.7385
-14.7219 -3.06278 18.3474
-15.5771 -3.27957 17.3019
-15.5521 -3.31496 17.031
-15.5482 -3.4197 16.8616
-16.2778 -4.98244 12.3678
1.35677 5.82699 25.326
8.42026 -5.86056 27.6803
4.11409 -3.50173 27.9494
4.03856 -3.3911 27.9533
3.8734 -3.2775 27.7537
4.27598 -0.991943 26.1983
4.32682 -1.0806 26.4676
4.39558 -1.21954 26.7104
4.42155 -1.26084 26.8035
4.4817 -1.33693 26.965
4.58877 -1.39743 27.0681
-0.0257651 -1.40898 25.8412
-4.16907 0.0174139 25.8987
-4.16319 0.186709 25.8505
-3.60675 1.74243 25.1926
-4.74228 1.51666 24.782
-11.6559 0.0936316 22.6965
-11.7855 -0.326023 22.1743
-11.7798 -0.500545 21.988
-11.6314 -0.775851 21.5534
-11.2237 -1.83887 20.5602
-13.9458 -3.56223 18.8915
-14.6391 -3.06479 18.3825
-15.5487 -3.23208 17.4788
-15.6087 -3.28356 17.4188
-15.5988 -3.34145 17.1343
-15.5777 -3.37231 16.9924
-15.5516 -3.37489 16.9155
-15.5163 -3.51611 16.768
-15.4668 -3.61473 16.6796
-16.2271 -4.96891 12.461
-16.4588 -5.31898 6.6083
1.2113 5.95296 25.2973
3.92727 -3.33807 27.9036
4.38737 -1.21542 26.8407
4.43269 -1.29261 26.9004
4.5188 -1.38473 27.071
4.63455 -1.51157 27.3054
1.73156 -2.09309 26.0938
-4.32379 -0.532989 26.4857
-4.26377 -0.393253 26.2893
-4.24711 -0.246904 26.1108
-4.01428 0.718547 26.0785
-4.86352 1.33407 24.8109
-7.9584 -0.684284 22.4868
-8.66779 -0.951759 22.3457
-10.0375 -1.32676 23.1309
-11.6698 0.100324 22.7901
-11.7832 0.130997 22.7381
-11.8382 0.0925237 22.6578
-11.9062 0.00677666 22.5922
-11.8972 -0.117504 22.4766
-11.8395 -0.34275 22.2243
-11.7454 -0.642402 21.8278
-14.5793 -3.10952 18.4658
-14.8276 -3.09536 18.4962
-15.0424 -3.15572 18.404
-15.6509 -3.32373 17.8143
-15.6454 -3.30053 17.5908
-15.6148 -3.3075 17.3501
-15.576 -3.50807 16.9137
-16.3959 -5.06966 12.4209
-16.4916 -5.11043 12.3193
1.17162 5.89526 25.3377
7.06261 -5.59962 27.9509
5.68751 -4.6831 27.8214
4.10621 -3.45982 28.0754
3.97146 -3.36802 28.0619
4.34441 -1.08456 26.7696
4.4354 -1.3092 27.0272
4.60895 -1.47989 27.2325
4.67344 -1.58562 27.4017
-4.37278 -0.653463 26.6818
-4.09514 0.577359 25.9672
-3.55397 1.74346 25.3324
-3.56268 1.80901 25.2682
-3.67016 1.91493 25.1673
-5.0657 0.787912 24.6102
-8.09923 -0.744898 22.4165
-11.6502 0.0677391 22.831
-11.9007 -0.226098 22.3943
-11.7021 -0.76224 21.7073
-11.628 -0.879113 21.5861
-14.0343 -3.64765 19.0193
-14.7223 -3.1348 18.546
-15.0901 -3.15966 18.4957
-15.6544 -3.37989 18.3478
-15.6284 -3.3205 17.9762
-15.6555 -3.3877 17.2381
-15.6289 -3.39755 17.1055
-15.6099 -3.44321 17.0083
-15.5308 -3.59004 16.8414
-15.4855 -3.66722 16.7886
-16.7388 -5.24412 12.3068
-16.0166 -5.32137 5.82264
0.430388 7.00963 25.029
0.983102 5.95575 25.3418
5.61894 -4.66227 27.8884
4.12684 -3.49341 28.1546
3.64305 -3.32744 27.8644
4.48131 -1.39182 27.1687
4.5381 -1.42919 27.1698
4.56363 -1.46896 27.2264
4.59718 -1.55706 27.3748
4.65984 -1.64777 27.5059
4.76968 -1.70272 27.6282
1.2592 -1.82428 25.8866
-4.42577 -0.741846 26.8614
-4.41946 -0.564642 26.6186
-4.35681 -0.431555 26.3585
-4.31524 -0.330784 26.2118
-4.03312 0.791768 26.3152
-3.52146 1.81695 25.4089
-4.69419 1.98406 24.9943
-4.76683 1.85138 24.9627
-4.83643 1.72224 24.9444
-4.85155 1.57124 24.9022
-4.8938 1.46875 24.9219
-8.41665 -0.838991 22.4015
-8.79156 -0.941306 22.5904
-11.7446 0.124649 22.8922
-11.8568 0.177512 22.8721
-11.9281 0.175481 22.8195
-11.9827 0.116622 22.745
-11.994 -0.048474 22.615
-11.9663 -0.145415 22.5371
-11.8131 -0.608949 21.9788
-11.7581 -0.721468 21.8762
-14.892 -3.15911 18.6522
-15.6998 -3.38402 18.164
-15.7136 -3.38409 18.0082
-15.7249 -3.37601 17.6702
-15.6283 -3.50974 17.036
-15.5911 -3.58306 16.9859
-16.6009 -5.18566 12.3993
-16.3943 -4.95304 9.13303
-16.8648 -5.48736 6.69643
3.21893 3.88355 26.156
4.27626 -3.64779 28.5324
4.09379 -3.46037 28.1845
4.02449 -3.43221 28.2496
3.88894 -3.39217 28.1859
3.74603 -3.36826 28.0472
4.60494 -1.61054 27.4522
4.69611 -1.70383 27.5862
5.26783 -1.64941 28.0201
6.47492 0.323927 26.6968
0.69395 -1.59726 26.1434
-4.52363 -0.996715 27.1496
-4.50286 -0.831252 27.0166
-4.46272 -0.626192 26.7619
-4.40535 -0.498933 26.4963
-4.09685 0.715716 26.2187
-3.95398 0.893006 26.354
-3.4934 1.93268 25.418
-3.51851 1.85269 25.3381
-3.55106 1.94918 25.2882
-3.71001 2.01342 25.1797
-11.2784 -1.0089 23.139
-12.0589 0.04917 22.7246
-11.9005 -0.316774 22.3557
-11.8584 -0.560894 22.1363
-13.1704 -3.44241 19.635
-14.9698 -3.13607 18.6261
-15.1601 -3.16868 18.6275
-15.6808 -3.40696 18.5614
-15.7496 -3.49201 18.2487
-15.7578 -3.48776 17.8975
-15.7604 -3.4522 17.7362
-15.7171 -3.38413 17.5641
-15.7059 -3.40003 17.4604
-15.7021 -3.42033 17.3433
-15.6659 -3.46058 17.1498
-16.0097 -5.23254 12.9672
-16.833 -5.31943 12.4079
-17.0156 -5.42785 12.3249
-16.8042 -5.47856 6.61056
-16.0353 -5.34546 5.79064
0.687641 6.15303 25.2902
0.938279 5.90658 25.3989
8.28109 -5.58424 28.023
5.70295 -4.79502 28.1264
4.45013 -3.8273 28.6428
4.18775 -3.56965 28.4335
3.60946 -3.37837 27.9928
4.47306 -1.42962 27.2882
4.51686 -1.45801 27.2428
4.54947 -1.495 27.2741
4.55786 -1.53733 27.3597
4.5439 -1.56515 27.4164
4.59934 -1.66261 27.5308
4.63842 -1.7008 27.5707
4.70592 -1.78748 27.6856
4.69412 -1.91397 27.8211
5.3303 -1.59444 27.9935
1.90616 -2.3095 26.58
-4.53411 -0.693056 26.9128
-4.49547 -0.567543 26.6784
-4.47483 -0.525181 26.5764
-4.12236 0.750847 26.3942
-4.02014 0.835359 26.5008
-3.46118 2.14421 25.6952
-3.48898 1.96374 25.5024
-3.61971 2.06733 25.2571
-4.74845 2.14971 25.0896
-4.78129 1.98739 25.0283
-4.90973 1.64105 24.9763
-4.94481 1.39506 25.0112
-8.33737 -0.773941 22.5087
-11.2855 -1.11905 23.2396
-11.8337 0.166148 23.0163
-11.8942 0.218321 22.9883
-11.9484 0.23709 22.9429
-12.0925 0.142267 22.8078
-11.8847 -0.526406 22.274
-11.8135 -0.673015 22.041
-14.7626 -3.31875 18.8306
-15.0548 -3.16818 18.7322
-15.3222 -3.20102 18.6971
-15.6946 -3.60638 18.4216
-15.7481 -3.49185 18.085
-15.7489 -3.46069 17.6047
-15.6937 -3.44163 17.2563
-15.5928 -3.65946 17.0873
0.804264 5.97018 25.366
4.332 -3.6452 28.7139
4.23696 -3.5896 28.5874
4.11936 -3.50157 28.3335
3.95308 -3.49556 28.4524
3.64362 -3.44451 28.1337
4.52225 -1.50594 27.3291
4.55946 -1.61829 27.4952
4.64018 -1.7615 27.6353
-1.32491 -1.75045 26.5244
-4.59148 -0.904369 27.1308
-4.59159 -0.787806 27.0275
-4.57279 -0.595424 26.7744
-4.08834 0.781048 26.5263
-3.47814 2.04178 25.4818
-3.54046 2.07927 25.3208
-4.96605 1.58561 25.0408
-8.53067 -0.798861 22.7946
-8.7678 -0.916133 22.9045
-11.3711 -1.03852 23.1583
-11.4743 -0.90762 23.0823
-12.4627 -3.0018 20.3616
-13.9682 -3.91139 19.4207
-15.2127 -3.17727 18.7645
-15.4672 -3.23953 18.7528
-15.5378 -3.28384 18.6952
-15.631 -3.34821 18.7003
-15.6685 -3.55323 18.6221
-15.7287 -3.5993 18.0049
-15.7453 -3.57493 17.7461
-15.7351 -3.44632 17.5135
-15.7143 -3.47116 17.4196
-15.6909 -3.50399 17.2823
-16.6392 -5.29482 12.5418
-17.0188 -5.46755 12.4276
-17.2547 -5.6347 12.3043
-17.5704 -5.68074 7.54233
-14.2417 -3.90755 3.71293
0.535966 6.10985 25.3078
0.639978 6.0098 25.3692
6.54582 -0.0790729 27.1206
4.15543 -3.54364 28.5107
4.07831 -3.48391 28.4397
3.36385 -3.56454 28.1713
4.48341 -1.50255 27.408
4.50452 -1.58752 27.505
4.54493 -1.65775 27.569
4.63761 -1.83339 27.7133
4.6435 -2.06712 27.9623
-0.874833 -1.63585 26.6071
-4.67785 -0.724624 26.9339
-4.54494 -0.550484 26.6388
-4.52405 -0.50712 26.5057
-4.15016 0.754471 26.5452
-4.07167 0.801187 26.6947
-3.49712 2.08646 25.4033
-3.52475 2.21567 25.3694
-4.75506 2.48361 25.2254
-4.80077 2.32838 25.1727
-4.95628 1.72761 25.0591
-4.96697 1.38618 25.1221
-8.0929 -0.627189 22.8561
-11.163 -1.36043 23.5433
-11.3083 -1.20153 23.3085
-11.3442 -1.14553 23.2359
-11.5716 -0.774769 23.0654
-11.6204 -0.658978 23.0729
-11.6941 -0.453264 23.1158
-11.9261 0.259364 23.1163
-11.9812 0.305009 23.0716
-12.0175 0.289262 23.0015
-12.1799 0.2197 22.8895
-11.8748 -0.581634 22.2869
-11.7335 -0.897247 21.9683
-12.816 -3.11743 19.8882
-15.1513 -3.19921 18.8555
-15.3793 -3.20714 18.8335
-15.6626 -3.46342 18.7183
-15.7198 -3.6488 17.8663
-16.7837 -5.41044 12.557
-17.4248 -5.78021 12.2821
-16.5131 -5.50745 5.98232
-0.439506 9.89125 22.2089
0.29395 6.13414 25.3247
7.09122 -5.41271 28.5648
4.39836 -3.66151 28.8339
4.25849 -3.59912 28.6917
4.19892 -3.5723 28.6358
4.11756 -3.55322 28.6318
4.47766 -1.49278 27.5345
4.5846 -1.78586 27.6881
4.58717 -1.87656 27.7739
4.58813 -1.97211 27.8677
4.70495 -2.14298 28.103
-4.67174 -0.959979 27.2246
-4.66352 -0.847325 27.1009
-4.66822 -0.61358 26.7035
-4.6011 -0.572386 26.6805
-4.17188 0.732355 26.7168
-3.41373 2.29049 25.5797
-4.71034 2.63962 25.2873
-4.96301 1.87212 25.1152
-5.0028 1.76724 25.1577
-8.216 -0.66514 23.0741
-11.268 -1.38505 23.5591
-11.3102 -1.28651 23.4062
-11.3977 -1.13713 23.1927
-11.4384 -1.04416 23.1302
-11.5866 -0.848763 23.0607
-11.8012 -0.366414 23.1975
-11.8828 0.149492 23.2425
-12.28 0.0815868 22.8424
-12.0952 -0.248858 22.6618
-12.9327 -3.17791 19.9773
-13.1306 -3.43682 19.8957
-14.701 -3.58628 19.0476
-15.2889 -3.20652 18.8952
-15.5123 -3.25302 18.8716
-15.5777 -3.2938 18.7865
-15.6386 -3.38481 18.8114
-15.6942 -3.69411 17.7157
-15.7153 -3.62209 17.6142
-15.1538 -4.93263 16.4401
-17.082 -5.56833 12.5062
-17.6059 -5.92853 12.3138
-17.1057 -5.37084 9.71857
-17.6186 -5.70133 7.77356
-17.437 -5.75375 6.86124
0.0389743 6.15757 25.3265
0.464935 6.03962 25.36
4.01441 -3.58195 28.6698
3.39152 -3.64708 28.3334
4.5043 -1.62133 27.6229
4.53762 -1.71564 27.6624
4.52788 -2.01893 28.001
4.59563 -2.17681 28.1094
4.68397 -2.36273 28.3064
-4.69303 -1.1121 27.4729
-4.73174 -0.843929 27.0764
-4.76444 -0.71975 26.7829
-4.59952 -0.551773 26.59
-4.52972 -0.462262 26.3692
-4.57486 0.120225 25.798
-4.14098 0.69806 26.9477
-3.46777 2.22484 25.4522
-3.56456 2.36733 25.3647
-4.57422 2.73227 25.3389
-4.65687 2.81708 25.3542
-4.81811 2.64307 25.2957
-4.8598 2.48075 25.2451
-4.90553 2.31905 25.2162
-4.91279 2.13716 25.1563
-4.97463 2.03919 25.1733
-5.03654 1.78222 25.2881
-5.26541 -0.858607 25.6178
-8.75715 -0.977201 23.4653
-10.1376 -1.55902 24.0148
-11.3603 -1.24821 23.3058
-11.6682 -0.719929 23.0716
-11.7351 -0.572258 23.116
-12.0014 0.390485 23.2432
-12.0534 0.359184 23.0792
-12.2182 0.317795 22.9698
-12.3099 0.311615 22.9591
-11.9945 -0.400155 22.5466
-12.8056 -3.08412 20.2298
-14.9382 -3.46958 19.077
-15.2417 -3.25905 18.9874
-15.4179 -3.25206 18.9811
-17.3189 -5.7519 12.5545
-17.4507 -5.81363 12.4788
-17.7064 -5.79581 7.46446
-16.5793 -5.56909 5.90156
-15.6985 -5.22428 5.20995
-0.162732 6.12212 25.3517
5.85221 -4.9728 28.5978
4.10803 -3.60812 28.8081
2.44659 -2.957 27.3837
4.5364 -1.79453 27.7576
4.52613 -1.88873 27.8609
4.63872 -2.27474 28.2151
4.68997 -2.45168 28.3941
-1.17768 -1.844 26.8707
-4.55936 -1.54152 27.8646
-4.63202 -1.32847 27.7574
-4.7315 -1.07135 27.4528
-4.74937 -1.00554 27.3345
-4.72977 -0.918263 27.1873
-4.7556 -0.810094 27.0028
-4.76939 -0.782158 26.9207
-4.73837 -0.654604 26.5939
-4.58901 -0.513395 26.4628
-4.23623 0.643217 26.9277
-3.45186 2.32471 25.4554
-3.46274 2.40596 25.4285
-4.77306 2.79684 25.3476
-5.01192 1.9411 25.1886
-5.04473 1.93935 25.2735
-5.12352 -0.936087 25.8793
-9.29277 -1.28017 24.316
-11.2802 -1.4916 23.7316
-11.337 -1.37604 23.5033
-11.3449 -1.31676 23.4027
-11.4633 -1.12128 23.129
-11.61 -0.916518 23.0375
-11.8228 -0.455441 23.183
-11.9507 0.272924 23.3953
-12.0368 0.396358 23.1617
-12.1282 0.427904 23.1029
-12.4035 0.183154 22.9145
-12.3066 -0.0167107 22.8303
-12.2391 -0.149583 22.7901
-12.8626 -3.11136 20.3195
-13.0296 -3.20785 20.1113
-15.555 -3.30201 18.9711
-15.5966 -3.32224 18.8804
-15.6053 -3.41181 18.9431
-17.6176 -5.95526 12.4795
-17.7757 -6.04568 12.3277
-17.2148 -5.45289 9.68464
-17.2365 -5.34591 8.76857
-0.318549 6.14622 25.3522
-0.0384641 6.07675 25.3623
6.2188 -1.48622 28.3307
6.78723 -5.29444 28.6741
4.28172 -3.60415 28.8162
4.51096 -1.69721 27.7441
4.49752 -1.8545 27.952
4.50001 -2.13516 28.1854
4.59224 -2.34484 28.2905
4.62334 -2.41988 28.3673
4.712 -2.54034 28.5031
0.571216 -1.87012 26.9733
-3.78803 -2.66424 28.102
-4.69357 -1.23499 27.7174
-4.73543 -1.13632 27.5888
-4.77808 -0.901039 27.1533
-4.79429 -0.873221 27.0751
-4.65707 -0.569387 26.5307
-4.23757 0.558968 27.0982
-3.37285 2.53448 25.6125
-3.49122 2.53518 25.43
-4.91627 2.62541 25.3244
-5.03573 2.0834 25.2585
-8.25891 -0.856929 23.9829
-11.3299 -1.47047 23.6549
-11.3757 -1.37245 23.4198
-11.3957 -1.32036 23.3054
-11.5341 -1.0302 23.067
-11.7787 -0.631896 23.0968
-11.9345 -0.312458 23.3139
-12.0686 0.510664 23.2741
-12.0843 0.4467 23.1644
-13.15 -3.30775 20.1536
-15.3595 -3.30588 19.1051
-15.5046 -3.38189 19.1091
-17.5255 -5.91202 12.542
-18.0319 -6.22142 12.2133
-17.2667 -5.39355 9.15493
-0.184461 6.02575 25.3997
-0.018596 6.00097 25.4226
4.06345 -3.66951 28.9063
4.50689 -1.78998 27.8343
4.49314 -1.95238 28.13
4.55136 -2.26267 28.2258
4.63428 -2.50324 28.4446
4.82628 -2.63341 28.6895
-4.62812 -1.42764 27.926
-4.67393 -1.3166 27.861
-4.80165 -1.06605 27.5158
-4.79707 -0.963261 27.2498
-4.77007 -0.671348 26.4772
-4.62828 -0.523471 26.4002
-4.32602 0.619191 26.9619
-4.29421 0.570134 27.0468
-4.17417 0.595221 27.1253
-3.32308 2.73398 25.688
-3.40984 2.46535 25.5152
-3.41773 2.56546 25.4947
-3.51385 2.67078 25.4484
-3.68602 2.68895 25.4309
-4.82408 -0.495259 25.9592
-11.3251 -1.55182 23.7981
-11.3769 -1.47832 23.578
-11.5945 -1.01293 23.0162
-11.7208 -0.815491 23.0093
-11.8496 -0.520961 23.1608
-11.9172 -0.429859 23.2365
-12.0282 0.521128 23.4167
-12.1494 0.568691 23.2345
-12.554 0.296354 22.9751
-12.5047 0.163988 22.9426
-12.4409 0.0434522 22.9131
-12.3686 -0.076704 22.878
-12.3043 -0.179841 22.8506
-11.1859 -2.39935 21.9862
-11.1671 -2.41017 22.0956
-13.0024 -3.16147 20.3338
-12.9949 -3.16781 20.2029
-13.1103 -3.20778 20.2451
-15.3224 -3.43226 19.2088
-15.5665 -3.47997 19.0223
-17.6747 -6.04938 12.5607
-17.7653 -6.08891 12.4914
-17.9055 -6.13915 12.3754
-17.6714 -5.7599 8.0597
-17.7771 -5.88691 7.75225
-17.8023 -5.91628 7.30118
-0.873266 9.72428 22.3792
-0.630594 6.09237 25.3673
4.49823 -2.05981 28.2429
4.51201 -2.25246 28.307
4.54342 -2.31849 28.3094
4.57619 -2.45861 28.4312
4.63384 -2.57902 28.5101
4.6529 -2.66063 28.5728
1.57058 -2.29261 27.1758
-4.61278 -1.57264 28.0751
-4.74413 -1.25493 27.8635
-4.75807 -1.17884 27.7375
-4.80109 -1.13156 27.6646
-4.8388 -1.0146 27.3852
-4.83498 -0.940728 27.1691
-4.85939 -0.929722 27.0387
-4.80871 -0.723526 26.417
-4.3317 0.483249 27.1657
-4.22761 0.496904 27.2546
-3.3691 2.65271 25.5796
-3.43173 2.69009 25.5
-3.59356 2.70462 25.4398
-4.97835 2.72694 25.3936
-5.02822 2.46498 25.3483
-5.03902 2.33634 25.3389
-5.04292 2.21367 25.3294
-5.07266 2.04326 25.4172
-4.83852 -0.612936 26.0801
-11.308 -1.72352 24.0955
-11.36 -1.65131 23.9202
-11.3772 -1.5648 23.7458
-11.4024 -1.41448 23.3659
-11.6459 -0.926882 23.006
-11.8093 -0.676744 23.0613
-11.8878 -0.569673 23.1278
-12.0332 -0.319264 23.3892
-12.0184 0.514093 23.506
-12.066 0.604771 23.4123
-12.2391 0.663755 23.2548
-12.5842 0.499987 23.0383
-13.2083 -3.29743 20.2935
-13.2386 -3.37953 20.2607
-16.0092 -5.88969 14.288
-18.1982 -6.30734 12.268
-17.5007 -5.84884 10.4992
-17.7339 -5.93118 6.96237
-1.11711 6.6017 25.3171
-0.824919 6.0178 25.3857
-0.665716 6.00787 25.3954
4.35184 -3.46153 28.9609
2.65429 -3.61685 28.5892
4.50075 -2.15053 28.3256
4.58369 -2.54227 28.4999
4.64721 -2.7689 28.6472
-4.61867 -1.69171 28.2209
-4.67832 -1.49265 28.1169
-4.72373 -1.37556 28.01
-4.90006 -1.06004 27.5274
-4.86962 -1.00279 27.2872
-4.3534 0.54411 27.0827
-4.29252 0.450939 27.24
-4.19485 0.526979 27.3204
-3.29451 2.89995 25.7316
-3.39181 2.66825 25.5372
-3.46644 2.78656 25.4913
-3.64568 2.85911 25.4782
-4.91174 3.20352 25.5195
-11.2646 -1.77907 24.2414
-11.3942 -1.5824 23.6442
-11.3964 -1.48454 23.4941
-11.664 -0.948977 22.9697
-11.8281 -0.704785 23.0204
-11.9589 -0.47667 23.2133
-12.0224 -0.395098 23.315
-12.0452 0.620763 23.6407
-12.0442 0.636183 23.5607
-12.1231 0.693038 23.405
-12.57 0.571847 23.0766
-12.6728 0.267551 23.0053
-12.5836 0.125753 22.9825
-12.5083 -0.00299949 22.9682
-12.3154 -0.336614 22.9838
-13.175 -3.23998 20.423
-15.112 -3.74668 19.4708
-15.2067 -3.68654 19.4378
-15.358 -3.56221 19.3158
-15.4437 -3.48883 19.2414
-15.5386 -3.49526 19.0937
-15.1491 -4.7019 17.6512
-18.0427 -6.2358 12.4203
-18.1912 -6.30196 12.3778
-18.1679 -6.46307 11.5346
-17.4897 -5.57227 8.53426
-16.4966 -5.69148 5.33408
4.48756 -3.44615 28.9513
4.41244 -3.39075 28.928
4.29242 -3.45023 29.0442
4.50844 -2.29494 28.4252
4.52673 -2.33348 28.366
4.53245 -2.39814 28.4318
4.53856 -2.49033 28.4986
4.58477 -2.63439 28.5575
4.57717 -2.74557 28.6182
-4.83942 -1.18544 27.8243
-4.92547 -1.04262 27.4115
-4.9063 -1.00864 27.2021
-4.94572 -1.0663 27.0868
-4.58848 0.737697 26.1821
-4.38489 0.487163 27.1591
-4.38031 0.376157 27.3144
-4.29475 0.376421 27.3694
-3.25105 3.03879 25.7979
-3.37266 2.77469 25.572
-3.41043 2.86241 25.5473
-5.03301 2.79763 25.4511
-5.0498 2.68362 25.4328
-5.07471 2.56076 25.4232
-5.07876 2.42876 25.4241
-5.07427 2.28673 25.4123
-5.08244 2.22096 25.4874
-11.3555 -1.82522 24.2556
-11.4195 -1.81657 24.085
-11.414 -1.69137 23.833
-11.3916 -1.52076 23.5727
-11.9217 -0.60701 23.0731
-12.0163 -0.510139 23.1775
-12.0569 0.652972 23.5076
-12.0865 0.772112 23.5459
-13.1927 -3.31949 20.7641
-14.8961 -4.11929 19.8165
-15.5085 -3.49881 19.1666
-17.5799 -6.0899 12.6849
-18.3385 -6.38065 12.3225
-18.2709 -6.52329 11.5703
-17.4674 -5.55115 8.74394
-1.8331 8.40666 23.6682
-0.787666 5.93398 25.4197
4.55116 -3.47276 28.9846
4.34044 -3.29536 28.9807
2.25611 -3.16209 28.2234
4.5321 -2.58856 28.557
4.55905 -2.90156 28.7026
3.81128 1.58009 27.8719
2.17303 -2.97632 28.0225
-4.95061 -1.09569 27.6479
-5.0175 -1.10983 27.5549
-4.93335 -1.04653 27.3191
-4.92971 -1.06459 26.8444
-4.43437 0.578508 27.062
-4.39797 0.437595 27.2276
-4.23969 0.42854 27.4164
-3.20558 3.18664 25.8379
-3.29075 2.99792 25.7042
-3.34007 2.94182 25.6164
-5.02504 3.05624 25.5163
-5.02648 2.91284 25.4781
-11.2904 -1.86618 24.3924
-11.3992 -1.57667 23.5244
-12.1913 -0.355575 23.492
-12.0863 0.524616 23.8128
-12.073 0.759674 23.7677
-12.065 0.785978 23.695
-12.0654 0.744089 23.6003
-12.1399 0.869404 23.5492
-12.3743 0.865291 23.346
-12.7669 0.595094 23.0769
-12.8344 0.42154 23.069
-12.2599 -0.434494 23.0615
-13.3328 -3.35566 20.6448
-15.1913 -3.79803 19.5391
-15.3931 -3.67301 19.3573
-15.4381 -3.58611 19.3027
-15.4901 -3.57524 19.2247
-15.0726 -5.00609 17.5923
-18.2935 -6.37706 12.4369
-18.37 -6.60818 11.5955
-18.1646 -6.48642 11.3835
-17.692 -5.98567 6.63859
-0.946786 5.91358 25.4394
4.54016 -3.389 28.9523
4.48625 -3.32949 28.9008
4.41944 -3.26453 28.8918
4.30676 -3.37038 29.1157
4.50525 -2.41156 28.5031
4.52606 -2.68608 28.6018
4.46992 -2.7911 28.6988
4.61656 -2.97463 28.7709
-4.62846 -2.34825 28.7617
-4.90109 -1.26071 27.9959
-4.93123 -1.19816 27.8856
-4.98949 -1.08356 27.4064
-4.49264 0.626145 27.0363
-4.43676 0.472639 27.1994
-4.45931 0.404926 27.2923
-4.38081 0.282768 27.4732
-4.28982 0.312134 27.5245
-3.15326 3.31699 25.9151
-3.40699 3.07238 25.5991
-3.66468 3.06579 25.5326
-5.0716 2.86903 25.5027
-5.08813 2.7759 25.5053
-5.10375 2.65745 25.5093
-5.104 2.52242 25.5176
-5.10061 2.3696 25.5157
-7.84266 -1.10592 25.261
-11.3878 -1.9107 24.3917
-11.4281 -1.88823 24.2852
-12.0456 -0.535416 23.1141
-12.1305 -0.457211 23.2706
-12.1181 -0.394933 23.3721
-12.1199 0.952797 23.663
-12.6391 0.917823 23.2742
-12.7845 0.72192 23.1471
-12.8055 0.671366 23.1215
-12.8005 0.305924 23.0673
-12.4468 -0.325499 23.1698
-12.0954 -0.533509 22.9574
-12.8528 -3.47774 21.5144
-13.4331 -3.52344 20.5923
-14.7916 -4.23263 19.9406
-15.022 -4.11382 19.8561
-18.4394 -6.45084 12.3906
-18.4705 -6.64016 11.7275
-18.308 -6.57253 11.5246
-18.253 -6.54745 11.4573
-18.125 -6.48427 11.2657
-18.0037 -6.39941 11.1369
-17.7016 -6.09715 6.22782
4.41501 -3.10257 28.8528
4.32285 -3.29982 29.0838
4.47948 -2.64233 28.6399
4.45681 -2.95094 28.7615
4.53951 -3.05043 28.7782
-4.62571 -2.7424 29.0894
-4.67701 -2.63021 29.0801
-4.72229 -1.9053 28.7247
-4.74461 -1.63388 28.448
-4.83378 -1.45048 28.2547
-5.00634 -1.19302 27.8646
-5.02828 -1.14416 27.7332
-4.65483 0.817137 26.2292
-4.58468 0.794296 26.4677
-4.52433 0.691808 26.9389
-4.47784 0.537652 27.1444
-4.49888 0.310453 27.4445
-4.09631 0.644059 27.8536
-3.30643 3.10199 25.6682
-5.09309 3.14617 25.5695
-5.08334 2.98504 25.5299
-8.0085 -1.06738 25.069
-11.354 -1.9484 24.4936
-11.4567 -1.97851 24.2642
-11.9645 -0.630419 22.9486
-12.1152 -0.488972 23.1991
-12.277 -0.355412 23.591
-12.0868 0.919119 23.8255
-12.171 1.03047 23.6522
-12.8407 0.820898 23.1964
-12.9383 0.588245 23.1279
-12.8325 0.241644 23.116
-12.7649 0.100318 23.1493
-12.3934 -0.399963 23.2428
-13.4506 -3.4519 20.8106
-13.4915 -3.50973 20.7326
-13.5249 -3.6192 20.7113
-14.7269 -4.3293 20.0881
-15.1296 -4.02463 19.7697
-15.2715 -3.83394 19.5809
-15.4053 -3.75997 19.4112
-15.079 -5.04397 17.6811
-17.1709 -6.50683 13.2829
-18.2198 -6.37641 12.5223
-18.3428 -6.46038 12.5253
-18.5635 -6.51328 12.3504
-18.6431 -6.62218 12.0531
-18.5358 -6.72764 11.7896
-18.4392 -6.72771 11.6225
-18.2175 -6.55454 11.3642
-0.996215 5.71838 25.5639
4.5022 -3.17662 28.8498
4.36399 -3.08602 28.9829
4.20959 -3.68433 29.3983
4.44346 -2.56789 28.7259
4.39695 -2.92831 28.8382
-3.40898 -3.22673 28.8732
-4.79187 -1.81645 28.7521
-4.78871 -1.65079 28.5481
-4.93493 -1.39811 28.2378
-4.92944 -1.32097 28.1116
-4.98337 -1.23748 27.9794
-5.1116 -1.2208 27.6922
-5.10951 -1.21979 27.5708
-4.64859 0.842685 26.4306
-4.59321 0.806899 26.5988
-4.57932 0.756678 26.8558
-4.52334 0.585908 27.1251
-4.49274 0.46918 27.2378
-4.53777 0.4245 27.3268
-4.45413 0.232821 27.5886
-4.36909 0.23538 27.6181
-4.29996 0.281587 27.6769
-3.25815 3.22379 25.7117
-5.11359 3.33404 25.6174
-5.12787 2.91155 25.5715
-5.13437 2.58438 25.7739
-4.75757 1.02235 26.5688
-8.80254 -1.17234 25.1083
-11.3806 -2.0179 24.5983
-11.4221 -1.99393 24.5006
-11.4409 -1.97982 24.3876
-12.0934 -0.532051 23.0619
-12.1478 -0.494406 23.1642
-12.2387 -0.451542 23.299
-12.2129 -0.424502 23.3746
-12.2567 -0.392828 23.4938
-12.109 1.07201 23.9424
-12.0816 0.942263 23.7682
-12.1432 1.10792 23.7558
-12.3343 1.07816 23.5595
-12.8931 0.763201 23.1634
-12.9699 0.514354 23.1384
-12.5098 -0.348268 23.3178
-12.2433 -0.464131 23.1743
-13.6405 -3.71341 21.2711
-13.5018 -3.51108 20.9492
-15.024 -4.24082 19.9696
-15.2375 -4.0184 19.7598
-15.3227 -3.90549 19.6444
-15.4488 -3.85589 19.4355
-16.5983 -6.32349 15.4357
-18.1823 -6.42617 12.5892
-18.5142 -6.53857 12.4542
-18.6366 -6.56623 12.2691
-18.6739 -6.70807 11.9867
-18.6346 -6.77171 11.8992
-18.3559 -6.65207 11.5
-18.0912 -6.50344 11.1466
-17.9471 -6.37171 10.8359
-17.7893 -6.06334 8.56819
-17.8988 -6.19361 8.18457
-17.944 -6.20541 7.95927
-18.134 -6.36483 6.78656
-17.8729 -6.14814 6.57368
-1.36907 5.72122 25.5304
-1.16798 5.71971 25.5264
4.48124 -3.09125 28.806
4.4407 -2.69113 28.7112
4.41435 -2.7527 28.8165
-4.67453 -2.78331 29.1747
-4.74208 -2.53 29.1179
-4.69085 -2.27681 28.9721
-4.7073 -2.12908 28.9075
-4.7715 -1.97363 28.8729
-4.81108 -1.70791 28.6493
-4.81976 -1.54941 28.4371
-4.89315 -1.47461 28.3722
-4.96552 -1.28727 28.0629
-5.06646 -1.2704 27.9687
-5.09311 -1.25854 27.8412
-4.56559 0.709658 26.9814
-4.56758 0.659503 27.0947
-4.54878 0.536051 27.2186
-4.58913 0.404349 27.4451
-4.53365 0.249269 27.6161
-3.1622 3.44222 25.7744
-3.24696 3.34865 25.7129
-3.32186 3.22526 25.6651
-5.11998 3.63841 25.6758
-8.09884 -1.09357 25.3275
-11.283 -2.19853 25.1022
-11.4692 -2.03896 24.3834
-12.3342 0.0942086 24.1473
-12.1044 1.06666 23.8512
-12.1883 1.21328 23.7633
-13.0511 0.782279 23.1825
-13.0923 0.642281 23.1972
-13.0151 0.381933 23.2114
-12.9098 0.223945 23.2061
-12.5019 -0.380495 23.4082
-12.3836 -0.423885 23.364
-13.6126 -3.62585 21.098
-13.5809 -3.63338 20.8239
-14.3206 -4.58108 20.6553
-14.8387 -4.36807 20.1405
-15.4212 -3.89144 19.5595
-17.2903 -6.61953 13.3171
-18.6479 -6.59662 12.3866
-18.7095 -6.63098 12.1756
-18.7382 -6.72148 12.0928
-18.3031 -6.70282 11.4228
-18.2788 -6.61681 11.4088
-17.9979 -6.44089 10.9334
-17.9154 -6.35216 10.6874
-17.8032 -6.20594 10.3391
-17.7479 -6.03451 8.81303
-17.8441 -6.11138 8.3867
-1.21235 5.62881 25.5927
6.23852 -4.77216 29.1977
-0.311313 -2.43688 27.8426
-3.57068 -3.19522 29.1824
-4.66279 -2.98368 29.2945
-4.70914 -2.8851 29.2543
-4.74282 -2.66916 29.165
-4.74803 -2.35434 29.0974
-4.83867 -1.86421 28.8397
-4.84542 -1.73724 28.7242
-4.84783 -1.61481 28.5705
-4.97979 -1.49959 28.4101
-4.98449 -1.336 28.1482
-5.03556 -1.3095 28.0824
-5.1834 -1.35165 27.6469
-5.18819 -1.40414 27.1808
-4.61021 0.809032 26.7289
-4.6135 0.773924 26.9755
-4.59018 0.494365 27.3377
-4.58503 0.326436 27.5757
-4.48701 0.216124 27.6793
-4.4287 0.208136 27.6985
-4.36345 0.218691 27.7452
-4.30071 0.264758 27.8203
-3.11222 3.58165 25.797
-5.18168 3.40442 25.6812
-5.18825 3.07245 25.6658
-5.16713 2.90553 25.667
-8.80925 -1.21472 25.7229
-11.4118 -2.10727 24.7161
-11.4552 -2.07715 24.6058
-11.4763 -2.07072 24.4866
-11.4682 -2.13796 24.395
-12.3241 -0.415202 23.4755
-12.4319 -0.344802 23.8593
-12.4368 -0.280058 24.0619
-12.1262 1.22319 23.9346
-12.1245 1.16432 23.8378
-12.1492 1.20416 23.8131
-12.27 1.32041 23.749
-12.9806 1.12154 23.3484
-12.5906 -0.331619 23.4447
-12.4338 -3.71786 22.5852
-13.727 -3.83716 21.4219
-13.7942 -3.78331 21.2458
-13.5974 -3.5975 20.9851
-14.4925 -4.5235 20.4546
-14.5953 -4.47471 20.3375
-14.6944 -4.41267 20.227
-15.5 -3.97797 19.5179
-17.4125 -6.68296 13.2752
-18.5927 -6.64747 12.501
-18.7469 -6.65557 12.3017
-18.7267 -6.80774 12.017
-18.38 -6.86106 11.562
-18.1299 -6.60076 11.1599
-18.0649 -6.52084 11.0381
-17.9843 -6.44579 10.8019
-17.871 -6.32281 10.4773
-17.7011 -6.05986 9.41783
-17.6968 -6.0071 9.20192
-17.7861 -6.11251 8.69589
-17.8255 -6.19152 8.45969
-17.977 -6.29401 7.95902
-18.0615 -6.40106 7.75961
-18.0635 -6.31408 6.57887
-1.80251 5.68878 25.5805
-1.38345 5.61001 25.5765
-4.7599 -2.78174 29.2201
-4.79944 -2.4722 29.1416
-4.77189 -2.14974 29.0193
-4.86425 -1.91536 28.8943
-4.87003 -1.78652 28.7823
-4.87462 -1.66855 28.6595
-4.89912 -1.53573 28.4953
-5.05741 -1.42908 28.2341
-5.12218 -1.38423 28.0788
-4.61874 0.619453 27.2675
-4.63551 0.512727 27.4396
-4.62188 0.420173 27.5565
-4.56501 0.287869 27.683
-4.53033 0.238389 27.7274
-4.31589 0.266531 28.0066
-3.20263 3.51806 25.7358
-5.18354 3.58889 25.7015
-5.21076 3.2769 25.7048
-11.368 -2.26867 25.1858
-11.4817 -2.22318 24.8773
-12.3473 -0.429404 23.4134
-12.411 -0.401027 23.6143
-12.4461 -0.382286 23.7455
-12.3747 1.44712 23.7541
-13.1545 0.96968 23.2502
-13.2152 0.798503 23.2346
-13.1642 0.568806 23.2675
-12.6121 -0.360354 23.5858
-12.5013 -0.397321 23.5076
-12.5342 -3.74544 22.5593
-13.8188 -3.86137 21.4032
-13.7013 -3.70151 21.0761
-13.7488 -3.78912 21.0414
-14.5212 -4.61197 20.5682
-14.714 -4.48889 20.3072
-15.4091 -3.94789 19.6612
-18.7507 -6.71082 12.4444
-18.799 -6.73495 12.2083
-18.8041 -6.82893 12.1324
-18.2038 -6.67338 11.2722
-18.0295 -6.53639 10.9303
-17.9298 -6.45234 10.6175
-17.8237 -6.28486 10.2343
-17.7737 -6.23119 10.0129
-17.7149 -6.13473 9.62192
-17.7359 -6.06622 9.03259
-17.9483 -6.30829 8.09199
-18.1508 -6.53935 7.53645
-17.6418 -6.26175 5.62516
-1.38982 5.52054 25.6329
-3.4668 -3.2472 29.309
-3.56143 -3.23555 29.3955
-4.71341 -3.0458 29.3531
-4.79436 -2.87844 29.2655
-4.84451 -2.3825 29.1378
-4.82766 -2.25255 29.1045
-4.87144 -2.00492 28.9608
-4.91661 -1.84269 28.8335
-4.89722 -1.71498 28.7264
-4.90334 -1.59699 28.5939
-4.95356 -1.56394 28.5478
-5.06914 -1.5865 28.4117
-4.60654 0.364552 27.7004
-4.47059 0.217501 27.7618
-4.41852 0.213843 27.7835
-4.3778 0.233366 27.8557
-3.07684 3.71409 25.7983
-3.13623 3.65029 25.759
-5.23372 3.5227 25.7309
-5.22733 3.40009 25.7178
-11.4862 -2.27822 25.0374
-11.4916 -2.17078 24.7001
-11.5033 -2.13736 24.5951
-11.4896 -2.16057 24.533
-12.4331 -0.409629 23.5307
-12.5104 -0.385496 24.0306
-12.4951 -0.333027 24.1825
-12.1624 1.43329 24.0233
-12.2009 1.40892 23.8726
-12.2812 1.5336 23.874
-13.2379 0.912609 23.2391
-13.1525 0.445853 23.3266
-12.4874 -3.78445 22.7251
-13.9101 -3.93638 21.3979
-13.8283 -3.82109 21.1618
-13.8852 -3.93595 21.147
-14.6103 -4.55524 20.4443
-15.4165 -4.03439 19.7312
-15.4791 -3.99455 19.6362
-15.5272 -4.08868 19.6044
-18.8319 -6.76619 12.3341
-18.752 -6.92873 12.0729
-18.1521 -6.69227 11.1922
-18.0865 -6.62959 11.0656
-17.9853 -6.55467 10.8031
-17.8674 -6.40192 10.372
-17.7406 -6.2228 9.80643
-17.7298 -6.16449 9.41585
-17.725 -6.09199 9.24917
-17.7716 -6.14876 8.79664
-17.7901 -6.19683 8.66406
-18.2971 -6.64043 7.1887
-18.3366 -6.5922 6.58
-18.1164 -6.38422 6.45043
-1.75204 5.44344 25.6165
-1.57687 5.47558 25.6152
-4.868 -2.5137 29.1637
-4.92152 -2.14386 29.0379
-4.93928 -1.91098 28.8954
-4.94974 -1.75186 28.7524
-4.94909 -1.65013 28.6513
-5.0126 -1.61568 28.5474
-5.12921 -1.47438 28.1754
-4.50536 0.246513 27.8186
-4.41638 0.236937 27.9283
-4.29202 0.23691 28.236
-2.87347 4.02788 25.9562
-3.02535 3.8425 25.8227
-3.29556 3.58274 25.6988
-5.23802 3.19538 25.7686
-11.5639 -2.35266 25.0492
-11.5272 -2.27251 24.76
-12.4906 -0.402521 23.6956
-12.5175 -0.39766 23.8888
-12.1894 1.31298 24.2649
-13.3311 1.05173 23.2687
-13.3319 0.831167 23.279
-12.7212 -0.334222 23.7187
-12.5506 -0.394308 23.6585
-12.419 -3.84231 22.8847
-13.9615 -3.98549 21.3242
-14.5584 -4.72574 20.6379
-14.6244 -4.65856 20.5238
-15.3996 -4.14767 19.8219
-15.5447 -4.19619 19.5925
-15.5481 -4.45866 19.5396
-18.7786 -6.82483 12.5405
-18.8562 -6.83622 12.453
-18.8514 -6.8445 12.2479
-17.8012 -6.31226 10.0955
-17.7753 -6.31461 9.95139
-17.7271 -6.2414 9.60494
-17.7558 -6.16588 8.96267
-18.1364 -6.63138 7.61161
-18.2623 -6.64939 7.31677
-18.0027 -6.35537 6.13537
-14.2064 -4.18606 0.10477
-1.58237 5.3748 25.6978
1.88092 -3.88224 29.4109
-3.33411 -3.31748 29.4276
-3.51503 -3.27072 29.5097
-4.88671 -2.86067 29.2489
-4.93767 -2.43033 29.1499
-4.92391 -2.2951 29.1098
-4.98841 -2.00353 28.9157
-5.03216 -1.84351 28.7795
-5.07354 -1.72476 28.5787
-4.58184 0.328187 27.8258
-4.39349 0.189095 28.1599
-4.26695 0.202489 28.3737
-2.90127 3.73609 26.7419
-2.97629 3.98499 25.8333
-3.09838 3.79639 25.7645
-3.27587 3.71931 25.7111
-5.35224 4.1167 25.7309
-5.29397 3.60666 25.7908
-5.24256 3.14514 25.8636
-11.5563 -2.34373 24.8892
-11.506 -2.21932 24.6373
-12.5096 -0.399558 23.7915
-12.5826 -0.434483 24.0235
-12.5254 -0.392989 24.1617
-12.5733 -0.414477 24.2993
-12.1711 1.59642 24.1799
-12.2175 1.59003 23.9924
-13.3577 0.979019 23.2696
-12.6682 -0.382193 23.794
-12.4024 -3.95252 23.0864
-12.5402 -3.89705 22.9075
-13.9707 -4.11296 21.6521
-14.0208 -4.07372 21.5007
-15.1309 -4.5726 20.1317
-15.4874 -4.12245 19.7221
-15.5415 -4.17986 19.673
-15.5576 -4.297 19.6785
-17.5983 -6.83535 13.2778
-18.8899 -6.88147 12.3541
-17.8247 -6.36465 10.2005
-18.3651 -6.74903 7.15655
-18.5122 -6.88173 6.93737
-18.3998 -6.6706 6.52525
-18.0703 -6.51338 5.75575
-16.0088 -5.40874 4.38462
-2.9591 -3.40165 29.4612
-4.95391 -2.56982 29.1768
-4.99983 -2.24979 29.0476
-5.01569 -1.70514 28.6729
-4.5408 0.278887 27.8711
-4.48281 0.247486 27.9093
-4.34912 0.158606 28.2645
-4.23817 0.179646 28.4959
-2.84546 4.15393 25.8586
-3.03383 3.9257 25.7963
-3.68623 4.38782 25.6641
-5.44467 4.27825 25.7291
-5.34724 3.81443 25.7887
-11.6389 -2.58221 25.497
-11.5864 -2.42179 25.2173
-11.5971 -2.42469 24.9946
-11.5311 -2.36436 24.7904
-12.5758 -0.408638 23.8322
-12.5998 -0.466252 24.1859
-12.1716 1.54086 24.2268
-12.1859 1.62969 24.0934
-13.4966 1.16143 23.2955
-13.4666 1.06127 23.2885
-13.4384 0.980312 23.2891
-13.472 0.921446 23.3184
-11.1145 -2.9358 24.1132
-12.617 -4.0143 23.0193
-14.1036 -4.1527 21.4947
-14.0795 -4.15036 21.3953
-15.4656 -4.22601 19.832
-18.8395 -6.94825 12.5604
-18.9085 -6.97851 12.4569
-18.8749 -6.93365 12.2863
-18.8724 -7.03066 12.287
-18.735 -7.26479 12.2002
-17.7275 -6.20528 9.31757
-18.4534 -6.84863 7.04049
-1.94829 5.22584 25.6963
-1.82191 5.2282 25.7219
-2.80177 -3.43795 29.5012
-4.96399 -2.70274 29.1827
-5.01134 -2.50283 29.1252
-5.00047 -2.37075 29.0887
-4.58012 0.313579 27.9104
-4.53246 0.271835 27.9537
-4.50005 0.20065 28.1484
-4.40669 0.125086 28.2657
-4.2511 0.127595 28.6287
-2.7742 4.21414 25.9184
-2.93115 4.1073 25.8249
-3.01353 4.03619 25.7908
-3.0838 3.93967 25.7631
-5.43089 4.13889 25.7572
-5.38152 4.00439 25.7678
-5.31782 3.49555 25.8623
-11.6442 -2.50641 25.3268
-11.6512 -2.50416 25.1549
-12.6111 -0.428988 23.9569
-12.6233 -0.472861 24.1105
-12.212 1.7637 24.0905
-13.5421 1.2701 23.321
-12.6678 -0.422142 23.9413
-12.4351 -4.08866 23.2941
-12.5331 -4.0261 23.1565
-14.1246 -4.22156 21.6207
-14.3334 -4.53447 21.4904
-15.5278 -4.23757 19.7614
-15.5766 -4.41449 19.7492
-15.596 -4.57776 19.6821
-15.3057 -5.44466 18.8861
-15.2711 -5.47127 18.7956
-18.8178 -7.08529 12.6689
-18.904 -6.97404 12.3532
-18.8746 -7.16898 12.3326
-18.8182 -7.29713 12.2995
-17.6993 -6.39862 9.462
-18.4188 -6.85696 7.1289
-18.5435 -6.95053 6.97087
-18.6931 -7.05469 6.76099
-18.4383 -6.70928 6.42664
-14.8452 -4.67623 1.21223
-3.23805 -3.32642 29.5745
-5.07357 -2.32672 29.0074
-4.59367 0.315125 28.0333
-4.45287 0.148435 28.219
-2.79813 4.29185 25.8395
-2.89353 4.22701 25.8047
-5.29962 3.34137 26.038
-11.7404 -2.7233 25.5795
-11.7081 -2.65365 25.3713
-11.6037 -2.50028 25.0153
-11.5031 -2.50444 24.783
-12.6587 -0.459016 24.0546
-12.6763 -0.507327 24.1679
-12.6514 -0.529924 24.3692
-12.1751 1.75312 24.2816
-12.2527 1.93469 24.1203
-13.6397 1.62374 23.4121
-13.6473 1.25093 23.3226
-13.5728 1.04503 23.3193
-13.6605 1.00162 23.3905
-13.5845 0.826923 23.4815
-11.4594 -3.86896 24.5015
-12.6262 -4.09906 23.1552
-14.1831 -4.28411 21.6017
-14.1727 -4.27093 21.5033
-15.4323 -4.50581 19.9884
-15.4722 -4.40254 19.9226
-15.507 -4.31555 19.8504
-15.5477 -4.34328 19.7877
-15.5951 -4.52543 19.7526
-18.8896 -7.08859 12.5717
-18.9031 -7.07404 12.3946
-18.6148 -7.04773 6.92087
-18.4976 -6.77843 6.34246
-18.2335 -6.54133 6.2096
-18.154 -6.62049 5.64906
-17.7172 -6.44514 5.36532
-2.02026 5.10649 25.7451
-1.90579 5.11832 25.8081
1.39811 -3.80661 29.4799
-3.09448 -3.3411 29.6047
-5.05475 -3.17478 29.4279
-5.06737 -2.76051 29.1472
-5.09169 -2.58392 29.0793
-5.26244 -2.09079 28.5933
-4.5878 0.218516 28.2143
-4.51548 0.135137 28.2535
-4.46135 0.109613 28.2882
-4.4361 0.0787376 28.3461
-4.37198 0.0576926 28.4483
-4.35343 0.0412679 28.5138
-2.53906 4.42659 26.0335
-2.62612 4.38022 25.9487
-2.71103 4.34535 25.886
-2.98157 4.14856 25.7851
-5.66333 4.60362 25.7131
-5.42123 3.75301 25.9255
-11.682 -2.83755 26.0858
-11.7423 -2.79949 25.8689
-11.7701 -2.80302 25.74
-11.6195 -2.57426 25.0764
-12.6956 -0.555868 24.2955
-12.7071 -0.609316 24.5209
-12.6993 -0.556333 24.6272
-12.7237 -0.482774 24.7477
-12.1784 1.88574 24.2799
-12.1985 1.90023 24.199
-13.6938 1.34888 23.3326
-12.5114 -4.22154 23.4413
-12.5154 -4.11243 23.2993
-12.5873 -4.14699 23.2941
-14.2417 -4.50016 21.969
-14.3392 -4.48976 21.5941
-14.4192 -4.606 21.6271
