-24.4881 -12.8729 -0.708969
-24.5297 -12.7811 -0.838023
-24.5673 -12.8295 -0.84766
-24.5681 -12.8438 -0.844501
-24.4446 -13.164 -1.3485
-24.4007 -13.1489 -1.42576
-24.3617 -13.1389 -1.47985
-24.3247 -13.1513 -1.52309
-23.5654 -13.1488 -2.35565
-23.5221 -13.1218 -2.44117
-23.4784 -13.0929 -2.5256
-23.4154 -13.088 -2.66602
-23.2515 -12.9513 -3.23636
-23.2212 -12.9523 -3.3334
-23.1837 -12.8812 -3.57033
-23.1128 -12.8887 -3.88375
-23.1092 -12.8656 -3.93334
-23.1131 -12.8461 -3.99433
-23.0858 -12.7365 -4.05633
-23.0486 -12.7025 -4.09084
-23.0471 -12.6906 -4.18023
-22.9775 -12.8466 -5.51906
-22.9749 -12.8849 -5.62506
-23.0046 -12.9189 -5.6857
-23.0818 -13.0098 -5.81752
-23.1116 -13.0587 -5.91328
-29.0006 -8.77454 5.81492
-28.943 -8.86401 5.85267
-28.7034 -16.6828 3.58518
-28.6645 -16.6957 3.47323
-27.0072 -16.4525 2.03611
-26.8426 -16.4088 1.98858
-26.6741 -16.3869 1.9393
-26.3333 -16.3267 1.9362
-24.3012 -12.8098 -0.652028
-24.5552 -12.8969 -0.773567
-24.5562 -12.8454 -0.799889
-24.5395 -12.7896 -0.820869
-24.5489 -12.8009 -0.836424
-24.5616 -12.817 -0.844802
-24.5674 -12.8244 -0.848596
-24.5764 -12.8682 -0.840257
-24.5832 -12.9059 -0.88149
-24.5818 -12.9856 -0.913759
-24.5247 -13.1012 -1.19212
-24.2815 -13.1672 -1.57425
-24.1703 -13.2052 -1.66113
-23.6553 -13.2221 -2.15454
-23.3473 -13.0449 -2.90455
-23.3185 -13.013 -2.99159
-23.2927 -12.9937 -3.08317
-23.1936 -12.9204 -3.47647
-23.1786 -12.9133 -3.55328
-23.1563 -12.9421 -3.60523
-23.086 -12.9387 -3.87525
-23.0956 -12.7768 -4.03871
-23.0584 -12.6921 -4.27043
-23.0237 -12.6902 -4.49071
-23.0348 -12.722 -4.59215
-23.0337 -12.7483 -4.84386
-23.0256 -12.7435 -4.94168
-23.0377 -12.7524 -5.04914
-23.0578 -12.7822 -5.16767
-23.0309 -12.8441 -5.40997
-23.0033 -12.8382 -5.47131
-23.0572 -12.9687 -5.73382
-23.1379 -13.1094 -6.00278
-29.3078 -8.66877 5.57913
-29.1793 -8.70699 5.6711
-29.1157 -8.7589 5.7051
-26.5015 -16.4024 1.91393
-24.3635 -12.8807 -0.651747
-24.4212 -12.9145 -0.654969
-24.5384 -12.9758 -0.748072
-24.5554 -12.8223 -0.819554
-24.5593 -12.8168 -0.83377
-24.5835 -13.0495 -0.916866
-24.5686 -13.0878 -1.00067
-24.4625 -13.2055 -1.29751
-24.3649 -13.171 -1.46892
-23.648 -13.2795 -2.09937
-23.4856 -13.1397 -2.4929
-23.4473 -13.1145 -2.57893
-23.4172 -13.1408 -2.62961
-23.0823 -12.9022 -4.02329
-23.0814 -12.8728 -4.08137
-23.0924 -12.7695 -4.09619
-23.081 -12.727 -4.12885
-23.0883 -12.73 -4.21142
-23.0615 -12.7064 -4.34972
-23.0516 -12.7033 -4.41837
-23.0464 -12.7666 -4.67308
-23.0471 -12.7753 -4.76572
-23.07 -12.8499 -5.26569
-23.0664 -12.8668 -5.35929
-23.0318 -12.8728 -5.53265
-23.006 -12.8728 -5.55789
-23.117 -13.025 -5.76019
-23.1545 -13.0893 -5.84258
-23.1781 -13.1323 -5.94018
-29.0414 -8.93728 5.77342
-28.8094 -16.6033 3.74544
-28.8008 -16.6325 3.59993
-28.7439 -16.6781 3.49978
-28.7258 -16.7316 3.40362
-27.3514 -16.6653 2.09737
-27.0755 -16.5699 1.98866
-26.9308 -16.5161 1.96956
-24.2404 -12.829 -0.635284
-24.265 -12.8789 -0.627067
-24.4738 -12.9768 -0.680142
-24.58 -12.9861 -0.83336
-24.5925 -12.9195 -0.846307
-24.5374 -13.145 -1.1571
-24.5057 -13.1959 -1.22438
-24.4197 -13.2198 -1.36776
-24.2322 -13.2249 -1.59359
-24.1799 -13.2344 -1.62663
-23.3518 -13.139 -2.78747
-23.3303 -13.095 -2.87329
-23.269 -13.0184 -3.12456
-23.0934 -12.8021 -4.08142
-23.0948 -12.745 -4.31156
-23.0596 -12.7337 -4.49696
-23.0572 -12.7732 -4.57933
-23.0573 -12.8027 -4.83788
-23.0559 -12.781 -4.90123
-23.0652 -12.797 -4.97243
-23.0763 -12.8335 -5.06634
-23.0827 -12.871 -5.17368
-23.0758 -12.908 -5.44305
-23.0603 -12.8956 -5.4989
-23.0964 -12.9788 -5.69793
-23.2011 -13.1687 -6.02238
-23.161 -13.1582 -6.0838
-28.8954 -16.5234 3.67711
-28.8369 -16.7156 3.46157
-27.2566 -16.6402 1.9707
-26.5029 -16.5071 1.89395
-24.4051 -13.0083 -0.638008
-24.4943 -13.0665 -0.72532
-24.5525 -13.0911 -0.829507
-24.5725 -13.1152 -0.935931
-24.5612 -13.1264 -1.00236
-24.4257 -13.2546 -1.32237
-24.3786 -13.2288 -1.4285
-24.3427 -13.2289 -1.49335
-23.422 -13.1922 -2.57521
-23.2339 -13.0129 -3.21046
-23.0947 -12.8056 -4.13589
-23.0961 -12.7699 -4.1629
-23.1036 -12.7821 -4.23697
-23.0781 -12.7427 -4.41006
-23.0575 -12.8052 -4.64215
-23.057 -12.8138 -4.71374
-23.0589 -12.8225 -4.78016
-23.0788 -12.9225 -5.25576
-23.0888 -12.919 -5.33354
-23.0854 -12.935 -5.40686
-23.0677 -12.915 -5.56386
-23.0464 -12.914 -5.62408
-23.0792 -12.9502 -5.64323
-23.1222 -13.039 -5.70242
-23.1514 -13.0962 -5.75852
-23.1869 -13.1874 -5.89253
-29.6091 -8.70155 5.30478
-29.4357 -8.7299 5.42038
-29.2697 -8.8724 5.55788
-29.1927 -8.93082 5.64374
-26.8742 -16.5764 1.9316
-24.2251 -12.9541 -0.601513
-24.4321 -13.0668 -0.661865
-24.5408 -13.1567 -1.04271
-24.5353 -13.1675 -1.10282
-24.5266 -13.1934 -1.16229
-24.5001 -13.228 -1.19753
-24.391 -13.2662 -1.38983
-24.283 -13.2506 -1.52246
-24.2204 -13.2528 -1.5775
-24.183 -13.2506 -1.60618
-23.3874 -13.2384 -2.57991
-23.0875 -12.8427 -4.19003
-23.0991 -12.8076 -4.31577
-23.0919 -12.7925 -4.40042
-23.0758 -12.7822 -4.49104
-23.0641 -12.8192 -4.57347
-23.0626 -12.8545 -4.82164
-23.0669 -12.8334 -4.89856
-23.0676 -12.8651 -4.96827
-23.0738 -12.9459 -5.18136
-23.0919 -12.9625 -5.47171
-23.0939 -12.9471 -5.50895
-23.0904 -12.9497 -5.55744
-23.1078 -12.9922 -5.65104
-23.238 -13.2407 -6.04589
-23.2207 -13.2099 -6.09524
-23.1926 -13.1937 -6.15688
-29.418 -8.83433 5.42677
-29.0312 -16.3614 3.70412
-28.9807 -16.4356 3.66521
-28.9257 -16.6327 3.55557
-24.3434 -13.061 -0.61197
-24.3756 -13.0857 -0.619662
-24.4331 -13.1435 -0.688728
-24.4742 -13.1564 -0.768116
-24.531 -13.1621 -0.917769
-24.464 -13.2725 -1.2114
-24.3485 -13.2657 -1.45625
-23.4781 -13.2266 -2.42609
-23.4598 -13.2016 -2.50429
-23.0955 -12.8281 -4.25106
-23.0591 -12.8448 -4.65742
-23.063 -12.857 -4.74121
-23.0802 -12.9731 -5.32189
-23.0923 -12.9539 -5.60491
-23.067 -12.9268 -5.60348
-23.1135 -13.042 -5.64562
-23.1492 -13.1691 -5.74962
-23.1961 -13.2931 -5.93507
-29.7832 -8.75357 5.1084
-29.6281 -8.8128 5.2328
-29.0863 -16.3036 3.6521
-28.9809 -16.53 3.60971
-28.4376 -17.2308 1.75824
-24.1926 -13.0341 -0.5675
-24.3808 -13.1453 -0.631631
-24.5189 -13.194 -1.03989
-24.4911 -13.2374 -1.15632
-24.1669 -13.3662 -1.53163
-23.0564 -12.9277 -4.33841
-23.0856 -12.8489 -4.31914
-23.0838 -12.8436 -4.39498
-23.0801 -12.8332 -4.487
-23.0585 -12.9778 -5.11212
-23.0603 -13.0148 -5.19021
-23.0973 -12.9875 -5.51903
-23.1004 -12.9897 -5.55715
-23.1049 -12.9934 -5.60349
-23.1617 -13.2211 -5.79432
-23.2662 -13.3098 -6.08153
-23.2709 -13.2631 -6.11362
-23.2611 -13.2422 -6.17602
-23.2203 -13.2275 -6.22153
-23.1875 -13.2322 -6.25701
-29.026 -16.3818 3.63684
-29.0215 -16.4551 3.61571
-28.3814 -17.2268 1.63588
-24.2272 -13.0478 -0.573661
-24.2279 -13.1017 -0.557597
-24.3319 -13.149 -0.596416
-24.3779 -13.2143 -0.641362
-24.5077 -13.2069 -0.988256
-24.447 -13.2891 -1.14357
-24.4118 -13.3238 -1.22897
-24.3633 -13.3494 -1.29952
-24.3311 -13.3424 -1.36852
-23.4547 -13.2735 -2.40065
-23.0549 -13.0547 -5.26964
-23.0725 -13.0131 -5.37201
-23.1501 -13.2852 -5.80776
-23.161 -13.3338 -5.87092
-23.2152 -13.3828 -6.00685
-23.1846 -13.2639 -6.34276
-30.0749 -8.8062 4.76803
-29.9428 -8.78149 4.90497
-29.8851 -8.89055 4.93774
-29.1814 -16.2377 3.614
-29.0834 -16.4186 3.59491
-29.0668 -16.53 3.58821
-28.3759 -17.2592 1.45455
-28.193 -17.1745 1.42378
-24.2342 -13.1745 -0.532497
-24.3213 -13.2276 -0.58427
-24.4828 -13.248 -1.057
-24.2936 -13.3362 -1.43175
-24.2344 -13.3745 -1.45921
-23.0484 -12.9406 -4.49405
-23.0659 -12.8843 -4.48671
-23.0473 -12.934 -4.70937
-23.0499 -12.9468 -4.80825
-23.0389 -13.0436 -5.11902
-23.1752 -13.3995 -5.93745
-23.3021 -13.3244 -6.13787
-23.3028 -13.2928 -6.17584
-23.279 -13.2645 -6.26389
-23.2341 -13.254 -6.28879
-23.2264 -13.2722 -6.34638
-30.1746 -8.87239 4.61897
-29.2085 -16.1446 3.65051
-29.1911 -16.3795 3.57915
-28.2942 -17.224 1.32212
-25.8356 -16.1099 2.13352
-23.9771 -13.5584 -0.33062
-24.1639 -13.189 -0.510287
-24.3367 -13.2786 -0.597683
-24.3589 -13.2749 -0.653036
-23.0317 -13.1219 -5.28708
-23.1146 -13.3067 -5.75742
-23.3056 -13.2951 -6.23514
-23.2011 -13.2858 -6.37998
-23.304 -13.4675 -6.66888
-23.3362 -13.5018 -6.69147
-30.7234 -9.33671 3.73228
-30.2726 -8.95848 4.47452
-30.038 -8.86586 4.74362
-29.2289 -16.174 3.57416
-29.2855 -16.268 3.55689
-29.1659 -16.5154 3.58357
-28.3729 -17.3245 1.21517
-28.2083 -17.2016 1.20439
-28.0944 -17.1703 1.30977
-25.7581 -16.0936 2.10537
-23.9791 -13.6463 -0.275712
-24.213 -13.2725 -0.499405
-24.2556 -13.2911 -0.524428
-24.2908 -13.3117 -0.548714
-24.2219 -13.419 -1.42135
-23.0351 -12.9653 -4.64399
-23.0366 -12.9993 -4.82833
-23.1459 -13.4997 -5.93363
-23.3198 -13.3393 -6.18818
-23.3249 -13.3341 -6.22997
-23.3279 -13.3166 -6.31077
-23.2981 -13.3012 -6.37021
-23.2464 -13.3073 -6.41029
-23.2712 -13.3877 -6.56018
-23.3179 -13.4287 -6.62033
-30.1582 -8.95384 4.58178
-30.0407 -8.951 4.70712
-29.9332 -8.97509 4.88382
-29.2995 -16.0131 3.64188
-29.2643 -16.0984 3.60631
-25.8287 -16.2519 2.00797
-25.8496 -16.1955 2.05586
-25.8122 -16.1389 2.07765
-25.6854 -16.0622 2.09797
-23.9174 -13.7036 -0.208598
-24.0256 -13.5346 -0.364692
-24.0353 -13.4719 -0.388212
-24.0521 -13.4089 -0.407067
-24.0736 -13.3425 -0.424035
-24.1074 -13.2657 -0.453661
-24.3279 -13.3125 -0.618038
-24.3313 -13.3257 -0.654023
-23.335 -13.3367 -6.27663
-23.3409 -13.4658 -6.65355
-23.4233 -13.5532 -6.70673
-23.5209 -13.7206 -6.86037
-30.6703 -9.44464 3.66227
-30.5463 -9.24783 4.02384
-30.023 -9.01985 4.74379
-28.2091 -17.245 1.00447
-25.8088 -16.3051 1.97327
-25.7411 -16.1356 2.04191
-25.6838 -16.0882 2.05279
-25.6027 -16.0264 2.08002
-24.0005 -13.7432 -0.201652
-24.1545 -13.3313 -0.446924
-24.1927 -13.3619 -0.47211
-24.2385 -13.3631 -0.508527
-24.2662 -13.3742 -0.538213
-24.1967 -13.4581 -1.39331
-23.1085 -13.6085 -5.91805
-23.34 -13.4353 -6.24408
-23.3337 -13.3797 -6.23648
-23.3536 -13.3761 -6.28498
-23.3672 -13.3664 -6.33506
-23.3682 -13.3548 -6.39501
-23.2944 -13.3457 -6.47524
-23.3383 -13.3939 -6.55459
-23.3665 -13.4435 -6.61649
-30.6841 -9.5815 3.51084
-30.4595 -9.20338 4.1734
-30.0709 -9.13344 4.70019
-28.4082 -17.4294 1.08768
-28.2645 -17.2977 0.89276
-28.0054 -17.2299 0.975163
-25.6339 -16.0498 2.05806
-25.2795 -15.9166 1.89333
-23.9499 -13.7915 -0.150873
-24.0688 -13.5059 -0.391433
-24.0813 -13.4436 -0.407434
-24.1013 -13.3744 -0.414373
-24.2764 -13.3895 -0.574378
-24.3066 -13.3573 -0.613546
-24.1696 -13.4738 -1.40668
-23.3576 -13.3637 -6.47439
-23.4079 -13.4775 -6.63038
-23.4399 -13.5239 -6.65927
-23.4691 -13.5736 -6.70156
-23.5007 -13.6264 -6.7462
-23.5285 -13.6824 -6.78818
-23.571 -13.7794 -6.87651
-30.7154 -9.67813 3.36806
-30.6298 -9.53104 3.66732
-30.6004 -9.41761 3.82065
-30.5556 -9.33174 3.94883
-30.4874 -9.29222 4.08013
-30.358 -9.16094 4.30249
-30.2509 -9.13441 4.42339
-30.1504 -9.12861 4.55553
-29.3574 -16.0939 3.50987
-28.3997 -17.4718 0.935691
-28.2063 -17.2689 0.878333
-28.137 -17.2455 0.903611
-25.6638 -16.1216 1.99836
-25.5977 -16.0632 2.00172
-25.5592 -16.0244 2.03305
-25.2206 -15.8885 1.85287
-24.0246 -13.8401 -0.14281
-24.0894 -13.7135 -0.29629
-24.0884 -13.6713 -0.346612
-24.1317 -13.407 -0.431802
-24.2275 -13.4163 -0.505865
-24.2473 -13.4271 -0.537171
-23.0533 -13.7307 -5.89673
-23.4077 -13.4086 -6.40655
-23.4062 -13.4103 -6.47535
-23.3987 -13.4306 -6.55776
-23.5626 -13.7341 -6.81888
-30.6389 -9.65011 3.53321
-30.4108 -9.24759 4.22161
-30.1952 -9.23306 4.53071
-29.3477 -15.8783 3.50702
-29.3591 -15.997 3.50794
-28.3796 -17.4702 0.791898
-28.1974 -17.3001 0.759255
-25.2432 -15.9111 1.82763
-24.1052 -13.7842 -0.237089
-24.1043 -13.6348 -0.383966
-24.1543 -13.4403 -0.447942
-24.2792 -13.4072 -0.613701
-23.4422 -13.4918 -6.60218
-23.478 -13.5543 -6.6436
-23.5055 -13.6087 -6.69581
-23.53 -13.6604 -6.73517
-23.5539 -13.7092 -6.76515
-23.5896 -13.7817 -6.83231
-23.6061 -13.817 -6.88219
-30.6719 -10.053 3.02531
-30.6036 -9.62062 3.66871
-30.2668 -9.21966 4.41299
-28.2405 -17.3665 0.605506
-25.5884 -16.1042 1.95556
-25.4491 -16.0143 1.91709
-25.3755 -15.9859 1.87571
-25.1816 -15.8839 1.8005
-25.1228 -15.8572 1.77924
-25.0406 -15.8037 1.80598
-24.1098 -13.8686 -0.175521
-24.122 -13.7569 -0.291603
-24.1679 -13.4715 -0.464322
-24.1949 -13.4523 -0.488569
-24.2106 -13.4614 -0.510314
-24.224 -13.4744 -0.539993
-22.9932 -13.805 -5.84691
-23.4029 -13.483 -6.36384
-23.4255 -13.4685 -6.41569
-23.4377 -13.4618 -6.47251
-23.4386 -13.469 -6.53666
-23.5749 -13.755 -6.78416
-23.6308 -13.8562 -6.9282
-23.6343 -13.8834 -6.98906
-23.6514 -13.9338 -7.0632
-30.6682 -9.91752 3.18139
-30.6364 -9.76265 3.40462
-30.6117 -9.75585 3.53992
-30.3159 -9.3215 4.37213
-29.3647 -15.7749 3.41477
-29.3871 -15.9097 3.42719
-29.5211 -16.0293 3.37231
-25.5243 -16.0571 1.94529
-25.3212 -15.9725 1.82131
-25.2561 -15.9426 1.79955
-24.9764 -15.7631 1.78712
-24.9218 -15.729 1.79664
-24.1403 -13.8627 -0.209447
-24.1366 -13.8108 -0.257544
-24.1258 -13.5529 -0.42564
-24.1353 -13.5002 -0.434644
-24.2312 -13.4901 -0.574428
-24.2469 -13.4557 -0.616188
-22.9565 -13.8199 -5.8162
-23.4695 -13.5248 -6.58192
-23.509 -13.6094 -6.65543
-23.5297 -13.6491 -6.69235
-23.5459 -13.6934 -6.72123
-23.6125 -13.8183 -6.83968
-23.7458 -14.0863 -7.22396
-30.5764 -10.2136 2.91541
-30.6147 -10.0174 3.12035
-30.6354 -9.87269 3.27853
-30.5415 -9.52561 3.95179
-30.4704 -9.43902 4.11065
-30.398 -9.36906 4.23407
-29.4597 -15.9211 3.35141
-28.2666 -17.4003 0.509151
-28.1945 -17.3648 0.507162
-25.5244 -16.0899 1.91122
-25.4753 -16.0529 1.90456
-25.4176 -16.0297 1.87552
-25.3656 -16.0063 1.84186
-25.1345 -15.873 1.73987
-25.0799 -15.8337 1.71552
-24.8822 -15.7064 1.79712
-24.1231 -13.9384 -0.124025
-24.1489 -13.9352 -0.153968
-24.1946 -13.5069 -0.510432
-24.205 -13.5221 -0.541335
-23.4574 -13.5181 -6.47882
-23.4676 -13.5136 -6.52771
-23.5809 -13.7713 -6.75385
-23.6559 -13.8749 -6.91395
-23.6654 -13.8956 -6.96353
-23.761 -14.0555 -7.16039
-23.7914 -14.1688 -7.29358
-30.5716 -10.3073 2.81658
-30.5719 -10.1345 3.02347
-30.5997 -9.8668 3.37663
-29.3617 -15.6577 3.29886
-29.4103 -15.796 3.33209
-28.2524 -17.4148 0.390986
-25.3272 -16.0093 1.80455
-25.2689 -15.9781 1.77775
-25.2062 -15.9452 1.73969
-25.1386 -15.9037 1.70695
-24.8939 -15.7068 1.76543
-24.8545 -15.6898 1.7736
-24.1751 -13.9296 -0.195229
-24.1527 -13.6668 -0.437096
-24.1497 -13.6188 -0.442802
-24.2069 -13.5375 -0.576749
-23.567 -13.7456 -6.71558
-23.6329 -13.8486 -6.8442
-23.6499 -13.8653 -6.87719
-23.8337 -14.1613 -7.2495
-30.4675 -10.34 2.85795
-30.5069 -10.2515 2.96763
-30.5621 -10.097 3.12654
-30.5925 -9.97398 3.23176
-30.5102 -9.55619 4.09975
-29.3403 -15.4919 3.25942
-29.4751 -15.8065 3.27958
-25.5098 -16.1279 1.87957
-25.0809 -15.8581 1.67757
-25.025 -15.8172 1.65677
-24.9768 -15.7681 1.68112
-24.9621 -15.7526 1.72127
-24.188 -14.0039 -0.133625
-24.154 -13.8275 -0.297596
-24.1695 -13.5388 -0.480859
-24.1925 -13.5714 -0.541271
-23.4698 -13.5845 -6.49804
-23.4867 -13.5687 -6.53257
-23.5834 -13.7813 -6.72194
-23.6715 -13.8901 -6.89288
-23.6848 -13.9077 -6.93827
-23.703 -13.9311 -6.98842
-23.7273 -13.9704 -7.04028
-23.7676 -14.0253 -7.09741
-23.8136 -14.1013 -7.1577
-23.8654 -14.2437 -7.35572
-30.5293 -10.1976 3.05517
-30.5948 -9.98249 3.35072
-29.3826 -15.5432 3.20947
-29.5185 -15.7353 3.21619
-28.322 -17.4778 0.264525
-25.285 -16.0155 1.77085
-24.9771 -15.779 1.63764
-24.9233 -15.7222 1.70185
-24.8629 -15.6864 1.74007
-24.1605 -14.1562 0.0333139
-24.2074 -13.9995 -0.180278
-24.176 -13.8994 -0.240911
-24.1619 -13.8596 -0.269235
-24.1692 -13.6855 -0.467232
-24.1683 -13.636 -0.470041
-24.1658 -13.5871 -0.475968
-24.1922 -13.5874 -0.576766
-23.5052 -13.6153 -6.58085
-23.5211 -13.65 -6.62025
-23.5356 -13.6712 -6.65451
-23.5519 -13.7127 -6.68261
-23.5643 -13.746 -6.68222
-23.6024 -13.8188 -6.72938
-23.6151 -13.8424 -6.77248
-23.6337 -13.8603 -6.81171
-23.6568 -13.8741 -6.85158
-23.8611 -14.1727 -7.20388
-23.9178 -14.2748 -7.34112
-30.4042 -10.5618 2.66367
-30.3725 -10.4787 2.75976
-30.4486 -10.3492 2.95252
-30.5371 -10.2004 3.14454
-30.5706 -10.0851 3.2358
-29.3617 -15.4114 3.14253
-28.4745 -17.6273 0.210047
-28.3862 -17.5355 0.216404
-28.2359 -17.4517 0.208713
-24.9681 -15.7978 1.59961
-24.9394 -15.7423 1.62845
-24.0892 -14.3334 0.219015
-24.1982 -14.1406 -0.00509113
-24.2015 -14.0822 -0.0698329
-24.2234 -14.0658 -0.12932
-24.1984 -13.9453 -0.220468
-24.1689 -13.8605 -0.292058
-24.1631 -13.8351 -0.321352
-24.1672 -13.7615 -0.424008
-24.1762 -13.7354 -0.462152
-24.1781 -13.6045 -0.506383
-24.184 -13.6221 -0.540263
-23.6016 -13.9545 -6.7031
-23.5178 -13.7036 -6.58904
-23.5008 -13.6336 -6.55419
-23.5776 -13.7859 -6.68339
-23.6775 -13.9048 -6.86536
-23.6973 -13.9209 -6.91033
-23.717 -13.9412 -6.95764
-23.7332 -13.9626 -7.00161
-23.7636 -14.0046 -7.0373
-23.8119 -14.0714 -7.08801
-23.8474 -14.1392 -7.14981
-23.9024 -14.2356 -7.26733
-23.9411 -14.3468 -7.42945
-30.3777 -10.4528 2.89856
-29.3383 -15.3258 3.16919
-28.3283 -17.5007 0.166787
-25.0552 -15.9222 1.61927
-25.0107 -15.8726 1.59955
-24.9236 -15.7442 1.57463
-24.9069 -15.7075 1.66055
-24.8659 -15.678 1.70463
-24.8344 -15.6664 1.71467
-24.8107 -15.6457 1.67946
-24.1796 -14.2391 0.0813592
-24.1992 -14.2052 0.0348485
-24.2334 -14.0517 -0.195219
-24.2147 -13.9867 -0.224958
-24.1895 -13.9156 -0.254904
-24.1761 -13.8846 -0.267955
-24.1785 -13.7069 -0.501588
-24.1767 -13.6549 -0.5037
-24.1796 -13.6382 -0.57747
-23.5242 -13.6747 -6.60507
-23.5425 -13.7006 -6.64744
-23.547 -13.7357 -6.64042
-23.5932 -13.8319 -6.69968
-23.6117 -13.8517 -6.74348
-23.6288 -13.8729 -6.77837
-23.6539 -13.8904 -6.8207
-23.8757 -14.1873 -7.18362
-23.9591 -14.3138 -7.33094
-23.9977 -14.3779 -7.42124
-23.9312 -14.4318 -7.54701
-30.2979 -10.6259 2.69085
-30.3073 -10.6444 2.82061
-30.4324 -10.4296 2.99228
-29.3494 -15.2881 3.08397
-29.3878 -15.3398 3.05279
-28.4061 -17.5747 0.0973581
-28.2901 -17.5263 0.070714
-24.9159 -15.7734 1.53691
-24.7973 -15.6295 1.62678
-24.1603 -14.3849 0.23022
-24.2345 -14.1295 -0.0862498
-24.2522 -14.1188 -0.138333
-24.1837 -13.892 -0.283118
-24.1776 -13.8708 -0.310969
-24.1821 -13.7872 -0.45323
-24.1818 -13.763 -0.497739
-24.1796 -13.6743 -0.540574
-23.6529 -13.9751 -6.77672
-23.6988 -13.9378 -6.87959
-23.7221 -13.9588 -6.92771
-23.7826 -14.0349 -7.00871
-30.2372 -10.7471 2.68382
-28.5138 -17.6655 0.0655234
-26.7055 -16.9215 0.775327
-24.9604 -15.8663 1.55432
-24.8682 -15.7192 1.51353
-24.8725 -15.699 1.5465
-24.8864 -15.6887 1.6275
-24.8827 -15.6849 1.65441
-24.8645 -15.6688 1.66881
-24.8434 -15.6574 1.68486
-24.8352 -15.6496 1.64926
-24.1652 -14.4666 0.298299
-24.2043 -14.3 0.104245
-24.2086 -14.2616 0.0626826
-24.2201 -14.2371 0.0249012
-24.2466 -14.1171 -0.200486
-24.2275 -14.0028 -0.257261
-24.1968 -13.9238 -0.2745
-24.1718 -13.7306 -0.542216
-24.1631 -13.6517 -0.616318
-23.6621 -13.9443 -6.80418
-23.8167 -14.1059 -7.0369
-23.8982 -14.2269 -7.19055
-23.9743 -14.3473 -7.31882
-24.0041 -14.3887 -7.3776
-24.058 -14.4793 -7.50486
-23.983 -14.4899 -7.58613
-30.2363 -10.7959 2.61775
-29.343 -14.9073 2.86835
-29.3424 -15.0693 2.9714
-29.3587 -15.2081 3.00564
-29.4142 -15.2618 2.97969
-28.4511 -17.6463 -0.00691503
-26.7679 -16.9119 0.72432
-26.6986 -16.8894 0.655209
-24.9102 -15.815 1.50042
-24.7475 -15.5968 1.51405
-24.2109 -14.4329 0.239023
-24.2054 -14.3841 0.187867
-24.2182 -14.3509 0.140878
-24.2317 -14.2216 -0.00841331
-24.2305 -14.1904 -0.0294448
-24.2425 -14.1766 -0.0575276
-24.2582 -14.1709 -0.0964839
-24.2638 -14.1759 -0.149112
-24.2387 -14.0547 -0.258526
-24.1899 -13.9 -0.298966
-24.1928 -13.8391 -0.437428
-24.1859 -13.8233 -0.484178
-24.1649 -13.8017 -0.543431
-23.6933 -13.9827 -6.84078
-23.6909 -13.9522 -6.85019
-23.7142 -13.9757 -6.89108
-23.7463 -14.0058 -6.94467
-23.7751 -14.0675 -6.95883
-23.8587 -14.1714 -7.07034
-23.8786 -14.1854 -7.12164
-24.0471 -14.4558 -7.44609
-24.0682 -14.5216 -7.56988
-30.1416 -10.9794 2.42201
-30.1862 -10.8588 2.63523
-29.2845 -14.2769 2.61753
-29.3161 -14.4914 2.71733
-24.9247 -15.8795 1.50508
-24.8435 -15.6684 1.53948
-24.862 -15.6708 1.59756
-24.8626 -15.6649 1.63204
-24.6745 -15.5561 1.46613
-24.6086 -15.539 1.49233
-24.2286 -14.3375 0.0998481
-24.2267 -14.2814 0.0462216
-24.2349 -14.2617 0.0117543
-24.237 -14.1075 -0.272252
-24.226 -13.9971 -0.308725
-24.2147 -13.9589 -0.30243
-24.1528 -13.7489 -0.590657
-24.1474 -13.7031 -0.624508
-23.95 -14.3182 -7.23695
-24.0934 -14.5336 -7.51125
-24.1041 -14.5589 -7.56739
-24.0346 -14.5539 -7.64163
-30.058 -11.0987 2.29851
-30.1276 -10.943 2.51891
-29.2891 -14.4183 2.63772
-29.3406 -14.8122 2.74209
-29.3476 -15.0205 2.86211
-29.3851 -15.1405 2.92126
-29.5202 -15.1415 2.82265
-26.6622 -16.8687 0.505806
-24.8664 -15.8519 1.4587
-24.838 -15.79 1.43544
-24.805 -15.7222 1.41075
-24.8342 -15.6563 1.56455
-24.8098 -15.6371 1.52357
-24.7248 -15.5868 1.44011
-24.5374 -15.5329 1.50915
-24.195 -14.8924 0.756532
-24.2477 -14.4618 0.226711
-24.2323 -14.4255 0.200422
-24.2364 -14.4024 0.164483
-24.2431 -14.3815 0.124304
-24.253 -14.2096 -0.0668501
-24.2637 -14.2177 -0.101338
-24.2561 -14.2319 -0.143802
-24.2292 -14.0383 -0.324308
-24.2026 -13.8895 -0.413541
-24.1988 -13.8854 -0.457022
-24.1751 -13.8777 -0.509532
-23.7259 -14.0234 -6.89479
-23.8952 -14.2265 -7.11316
-23.9188 -14.2763 -7.15904
-23.9766 -14.3556 -7.27389
-24.1119 -14.5875 -7.62106
-24.0895 -14.6103 -7.68472
-30.0348 -11.0563 2.40933
-30.1042 -10.97 2.59329
-29.2729 -14.3802 2.55128
-29.3169 -14.6364 2.63332
-29.3695 -14.9376 2.77909
-29.4172 -15.0764 2.83212
-27.3977 -17.3011 -0.122886
-26.9597 -16.9065 0.375228
-26.8687 -16.877 0.504697
-26.7762 -16.8505 0.510107
-24.7835 -15.6287 1.47256
-24.6676 -15.5483 1.39998
-24.6041 -15.5173 1.41071
-24.5424 -15.5088 1.4395
-24.4656 -15.5389 1.50849
-24.2413 -15.0334 0.86599
-24.2125 -14.7632 0.617103
-24.1877 -14.6386 0.47187
-24.1657 -14.5851 0.418159
-24.2509 -14.5498 0.307204
-24.2655 -14.5089 0.24959
-24.2471 -14.3644 0.0839574
-24.2386 -14.3046 0.0287447
-24.245 -14.2865 -0.00521128
-24.239 -14.2555 -0.184424
-24.2163 -14.0805 -0.345193
-24.2199 -13.9759 -0.364029
-24.2149 -13.9454 -0.345999
-23.9752 -14.3664 -7.24756
-23.9965 -14.4052 -7.30088
-24.0152 -14.4348 -7.35399
-24.0616 -14.498 -7.40562
-24.1307 -14.6048 -7.56788
-24.1481 -14.6162 -7.61898
-24.1224 -14.6567 -7.73541
-29.9432 -11.1712 2.29261
-30.0357 -11.0422 2.50755
-29.2501 -14.311 2.46852
-29.3169 -14.5566 2.55274
-29.3585 -14.7422 2.64688
-29.4004 -14.8561 2.69095
-29.5396 -15.0198 2.72543
-26.7565 -16.8321 0.341212
-24.825 -15.8975 1.42907
-24.7677 -15.7767 1.36215
-24.7591 -15.6924 1.35825
-24.7565 -15.6218 1.41841
-24.7086 -15.5792 1.38629
-24.2832 -14.9652 0.796089
-24.221 -14.7113 0.548553
-24.2451 -14.6081 0.387244
-24.2723 -14.4802 0.199558
-24.254 -14.4427 0.183745
-24.2565 -14.4248 0.144499
-24.2583 -14.4083 0.104022
-24.2519 -14.2696 -0.0374155
-24.256 -14.2482 -0.067616
-24.2581 -14.2673 -0.0979352
-24.2512 -14.2894 -0.134766
-24.2211 -14.2272 -0.2485
-24.217 -14.0063 -0.391577
-24.2144 -13.928 -0.384772
-24.2119 -13.9391 -0.415936
-24.1938 -13.9582 -0.462069
-23.9299 -14.3382 -7.16402
-24.1016 -14.5715 -7.46763
-24.1476 -14.6358 -7.66294
-24.115 -14.6113 -7.66301
-24.1393 -14.6472 -7.69899
-24.1122 -14.7461 -7.88405
-29.9446 -11.1319 2.40087
-29.1952 -14.0951 2.43619
-29.2016 -14.1961 2.39872
-29.2731 -14.4175 2.49134
-29.3686 -14.6619 2.55471
-26.8552 -16.8362 0.400164
-26.7083 -16.8504 0.217109
-26.6377 -16.9166 0.16977
-24.7406 -15.6437 1.35563
-24.6666 -15.5442 1.3488
-24.6231 -15.5139 1.35431
-24.3974 -15.542 1.49964
-24.3256 -15.0827 0.880601
-24.3383 -15.0474 0.844324
-24.2977 -14.9337 0.756242
-24.2539 -14.8472 0.691807
-24.2597 -14.7999 0.628227
-24.2784 -14.601 0.334412
-24.2845 -14.5573 0.27138
-24.284 -14.5242 0.209681
-24.2549 -14.3913 0.0618507
-24.2472 -14.3471 0.0451775
-24.2526 -14.3135 -0.0251709
-24.2334 -14.3061 -0.166305
-23.9571 -14.384 -7.21399
-23.9861 -14.4291 -7.27203
-24.025 -14.4806 -7.34372
-24.074 -14.5596 -7.41357
-24.138 -14.6432 -7.52806
-24.1671 -14.6606 -7.61469
-24.1725 -14.6706 -7.65779
-24.1701 -14.6845 -7.73434
-24.1667 -14.698 -7.77252
-29.8213 -11.2774 2.17127
-29.8502 -11.2162 2.2939
-29.9723 -11.1408 2.51423
-29.2475 -14.2715 2.34921
-29.2996 -14.4135 2.41121
-29.2934 -14.4886 2.49125
-29.3537 -14.5519 2.47061
-29.4323 -14.7867 2.60206
-27.3543 -17.265 -0.21101
-26.8876 -16.8524 0.251532
-26.808 -16.8467 0.154391
-24.7793 -15.9455 1.39907
-24.727 -15.7144 1.31053
-24.7234 -15.6507 1.31949
-24.6959 -15.5761 1.34288
-24.5746 -15.4866 1.34663
-24.2699 -14.691 0.469129
-24.2832 -14.6537 0.4013
-24.2788 -14.4899 0.158687
-24.2697 -14.4582 0.162614
-24.2681 -14.451 0.125801
-24.2537 -14.2937 -0.060345
-24.2363 -14.3444 -0.130228
-23.917 -14.3637 -7.11431
-24.1184 -14.6352 -7.47913
-24.1733 -14.6782 -7.69675
-24.2065 -14.7533 -7.83932
-24.1936 -14.7818 -7.89675
-29.9082 -11.2692 2.50345
-29.1489 -14.0877 2.33299
-29.4757 -14.6798 2.47101
-26.914 -16.8933 0.0688629
-26.7349 -16.8837 0.069643
-26.6619 -16.9635 0.0122429
-24.7126 -15.6086 1.33302
-24.6659 -15.5456 1.30864
-24.5924 -15.4885 1.30817
-24.5314 -15.4593 1.32004
-24.4913 -15.4545 1.33359
-24.362 -15.5113 1.44286
-24.3605 -15.1805 0.978876
-24.3936 -15.1119 0.883372
-24.3925 -15.0694 0.840647
-24.3471 -14.9731 0.762901
-24.3028 -14.8917 0.701741
-24.3 -14.6541 0.355413
-24.2999 -14.6137 0.29057
-24.2974 -14.5763 0.223406
-24.2888 -14.5384 0.148298
-24.2597 -14.4165 0.0365386
-24.2558 -14.3456 -0.0488939
-24.1598 -14.7063 -7.54621
-24.1759 -14.7028 -7.58398
-24.1945 -14.7033 -7.65341
-24.2011 -14.7195 -7.76024
-24.2066 -14.7297 -7.79888
-24.2618 -14.8529 -7.96393
-29.6599 -11.3981 2.04336
-29.772 -11.2722 2.22354
-29.2363 -14.1741 2.24134
-29.3282 -14.32 2.28289
-29.4005 -14.4884 2.36261
-27.3034 -17.2223 -0.260555
-27.2273 -17.1511 -0.254441
-26.8398 -16.9018 -0.0216589
-24.7385 -15.9884 1.36217
-24.6873 -15.658 1.26714
-24.6919 -15.6031 1.29282
-24.6876 -15.5758 1.31093
-24.5595 -15.4667 1.3036
-24.4016 -15.446 1.33939
-24.382 -15.0324 0.801403
-24.3099 -14.7815 0.553559
-24.3033 -14.7178 0.465562
-24.3062 -14.6902 0.410268
-24.2768 -14.4832 0.10609
-24.2491 -14.3916 -0.0805306
-23.9158 -14.4486 -7.11746
-24.2415 -14.767 -7.80753
-24.2675 -14.8069 -7.86835
-29.7169 -11.3229 2.16047
-29.7978 -11.3182 2.37027
-29.1199 -13.9211 2.34772
-29.1046 -14.0166 2.27723
-29.5492 -14.5178 2.32689
-27.1415 -17.1068 -0.265894
-27.0545 -17.0327 -0.202438
-26.9486 -16.9468 -0.115097
-26.761 -16.9449 -0.102338
-26.6806 -17.0266 -0.147347
-24.7046 -16.0505 1.33979
-24.6664 -15.5564 1.27645
-24.6345 -15.5219 1.26823
-24.5686 -15.4595 1.26649
-24.5348 -15.4389 1.27121
-24.4969 -15.4286 1.27838
-24.333 -15.4774 1.38381
-24.4354 -15.21 0.98762
-24.4392 -15.1188 0.858924
-24.4184 -15.064 0.804482
-24.345 -14.8767 0.639498
-24.3254 -14.7178 0.39246
-24.3204 -14.6809 0.320168
-24.3116 -14.6368 0.244632
-24.2937 -14.6023 0.172964
-24.2762 -14.5172 0.0755818
-24.2512 -14.3974 -0.0273947
-24.2084 -14.758 -7.60976
-24.215 -14.7404 -7.6338
-24.2105 -14.73 -7.65485
-24.2217 -14.7423 -7.74402
-24.2264 -14.7468 -7.77599
-24.3182 -14.8879 -7.92503
-24.3259 -14.9416 -8.02519
-24.2836 -15.071 -8.24308
-29.4809 -11.5266 1.91091
-29.6173 -11.3956 2.17372
-29.7172 -11.3141 2.22287
-29.7109 -11.3346 2.27735
-29.082 -13.959 2.28911
-29.1237 -14.0468 2.23503
-29.1676 -14.0824 2.19835
-29.3178 -14.1809 2.18106
-29.4407 -14.3867 2.27233
-27.5544 -17.5901 -1.11764
-27.3475 -17.5024 -0.930977
-26.6382 -17.0977 -0.161312
-24.6655 -15.5837 1.2436
-24.3762 -15.4018 1.27819
-24.2653 -15.2897 1.13615
-24.3483 -14.8429 0.586121
-24.3332 -14.7821 0.519811
-24.3259 -14.7438 0.454252
-24.2799 -14.5736 0.101998
-24.2607 -14.491 0.0169979
-24.2295 -14.4695 -0.0869484
-24.248 -14.7664 -7.76128
-24.2729 -14.8005 -7.78751
-24.3028 -14.8577 -7.82137
-24.3422 -15.0197 -8.11511
-24.3644 -15.2013 -8.40867
-24.399 -15.2674 -8.49264
-24.4774 -15.4641 -8.77293
-24.5483 -15.5614 -8.87929
-29.4822 -11.4809 2.03829
-28.9473 -13.7681 2.17435
-29.0546 -13.9646 2.21555
-29.2066 -14.0715 2.12485
-27.4298 -17.5453 -1.04736
-27.1044 -17.1577 -0.399632
-26.9797 -17.0475 -0.285943
-26.7986 -17.0574 -0.298062
-26.6808 -17.1262 -0.281648
-24.6534 -16.1313 1.31184
-24.6386 -15.5284 1.23109
-24.5773 -15.4526 1.22147
-24.5452 -15.4227 1.22404
-24.5055 -15.407 1.22422
-24.434 -15.3966 1.24007
-24.4002 -15.376 1.22497
-24.3258 -15.3909 1.26851
-24.3009 -15.4331 1.32471
-24.5154 -15.2501 0.988702
-24.4923 -15.1714 0.882825
-24.4534 -15.1018 0.792011
-24.4199 -15.0234 0.74098
-24.3824 -14.9536 0.696948
-24.3489 -14.7925 0.455032
-24.3463 -14.7925 0.377015
-24.33 -14.7088 0.272922
-24.3046 -14.6653 0.196305
-24.2333 -14.8699 -7.6404
-24.2441 -14.8217 -7.66086
-24.2428 -14.7835 -7.67261
-24.229 -14.759 -7.68236
-24.327 -14.936 -7.86714
-24.3602 -14.9735 -7.96985
-24.3722 -15.0278 -8.06192
-24.3814 -15.1026 -8.19413
-24.3804 -15.1335 -8.26548
-24.3584 -15.1577 -8.3315
-24.4694 -15.3498 -8.58692
-24.6485 -15.6814 -9.00469
-29.3211 -11.6118 1.85698
-29.3843 -11.5422 1.94802
-29.4963 -11.4786 2.12391
-29.0883 -14.0029 2.12766
-27.6228 -17.6156 -1.23942
-27.3325 -17.5268 -1.05362
-27.1412 -17.375 -0.762554
-26.9129 -17.0751 -0.347381
-24.6308 -15.5487 1.1881
-24.2985 -15.3451 1.19787
-24.3588 -14.841 0.556776
-24.3464 -14.7995 0.501528
-24.2546 -14.7841 -7.72608
-24.2741 -14.826 -7.73466
-24.2823 -14.8951 -7.75044
-24.3901 -15.0925 -8.1355
-24.4522 -15.297 -8.50038
-24.5364 -15.4487 -8.70027
-31.5922 -11.338 0.0977757
-29.2001 -11.7615 1.65595
-29.2097 -11.6888 1.74962
-29.3813 -11.5516 2.00389
-29.3701 -11.5807 2.07309
-29.5259 -11.5096 2.20228
-28.8714 -13.7639 2.05345
-28.9875 -13.8832 2.17969
-29.006 -13.9289 2.12219
-29.1053 -13.9658 2.00738
-27.5175 -17.5962 -1.20516
-27.0516 -17.2543 -0.596161
-27.0053 -17.1473 -0.443681
-26.9211 -17.1848 -0.508688
-26.7852 -17.208 -0.450627
-24.6106 -15.4868 1.17878
-24.5854 -15.442 1.17423
-24.5572 -15.4069 1.17665
-24.5212 -15.3824 1.17584
-24.4966 -15.3359 1.12181
-24.5294 -15.3238 1.08195
-24.5315 -15.2361 0.896655
-24.4998 -15.1679 0.813104
-24.4031 -14.9636 0.664144
-24.3806 -14.9005 0.598028
-24.3719 -14.8576 0.532073
-24.3792 -14.8792 0.49178
-24.3199 -14.7863 0.292954
-24.3078 -14.9839 -7.81833
-24.3523 -15.0163 -7.91676
-24.3816 -15.0527 -8.00575
-24.3918 -15.0986 -8.07865
-24.4285 -15.179 -8.24812
-24.4231 -15.2015 -8.3406
-24.5059 -15.3391 -8.5338
-24.5539 -15.4124 -8.61754
-24.7168 -15.7123 -8.98003
-31.978 -11.2332 -0.132611
-31.6937 -11.3361 -0.0522437
-30.8064 -11.7988 0.229944
-30.539 -11.91 0.421143
-29.2711 -11.6113 1.93923
-28.7791 -13.6687 1.9661
-28.9245 -13.8617 2.08552
-28.978 -13.9093 2.00609
-27.6578 -17.6411 -1.35863
-27.548 -17.6195 -1.28466
-27.4294 -17.5981 -1.22549
-27.1638 -17.4553 -0.945371
-27.0272 -17.3383 -0.725205
-24.6048 -15.4901 1.12373
-24.5656 -15.3514 1.05882
-24.5661 -15.32 0.974203
-24.4586 -15.1069 0.729299
-24.4047 -15.1521 -8.13206
-24.4448 -15.2078 -8.306
-24.4571 -15.2487 -8.39022
-24.614 -15.5062 -8.72248
-24.5942 -15.5298 -8.79126
-24.6734 -15.6085 -8.84325
-31.8489 -11.2556 -0.137355
-31.5224 -11.4142 0.0379946
-31.021 -11.6971 0.17591
-30.6126 -11.9684 0.278295
-30.4388 -12.0012 0.416166
-29.0686 -11.8519 1.58478
-29.103 -11.7649 1.67876
-29.0898 -11.7384 1.75949
-28.8694 -13.8044 1.95847
-28.9953 -13.8517 1.84917
-27.8286 -17.6502 -1.46321
-27.2863 -17.5729 -1.14081
-26.8833 -17.3196 -0.656807
-24.5589 -15.6457 1.07111
-24.5866 -15.4855 1.05348
-24.5903 -15.4268 1.12037
-24.5645 -15.3846 1.1252
-24.5366 -15.3655 1.13571
-24.5409 -15.2899 0.881353
-24.5167 -15.2225 0.82649
-24.4859 -15.1701 0.754008
-24.4342 -15.0449 0.641872
-24.4054 -14.951 0.595006
-24.4029 -14.9864 0.552911
-24.3059 -14.7846 0.246453
-24.3824 -15.1088 -8.03202
-24.3933 -15.1504 -8.07769
-24.428 -15.2099 -8.16763
-24.4481 -15.2288 -8.22999
-24.4617 -15.2489 -8.35241
-24.5096 -15.3323 -8.47014
-24.5549 -15.3872 -8.52598
-24.6082 -15.4858 -8.60953
-24.7634 -15.7532 -8.91002
-24.8136 -15.8492 -9.08531
-31.9931 -11.2825 -0.267698
-31.3825 -11.4996 0.0680532
-31.1707 -11.6061 0.141393
-30.9467 -11.8331 0.17713
-30.8391 -11.9614 0.224012
-30.3212 -12.0822 0.447166
-30.2051 -12.1122 0.518072
-29.1124 -11.7105 1.85695
-29.1742 -11.7001 1.96713
-29.2462 -11.7363 2.06571
-28.6924 -13.611 1.85283
-28.7971 -13.7408 1.88069
-28.9145 -13.8531 1.90371
-27.9861 -17.6514 -1.47669
-26.9956 -17.444 -0.878582
-24.5722 -15.5599 1.04181
-24.5855 -15.411 1.05126
-24.4014 -15.0477 0.538526
-24.468 -15.2604 -8.32796
-24.4832 -15.2829 -8.38862
-24.4809 -15.2921 -8.42801
-24.6795 -15.5954 -8.74697
-32.1733 -11.3124 -0.384383
-31.6973 -11.4127 -0.139506
-31.2677 -11.5892 0.0698455
-31.0748 -11.806 0.124736
-30.4788 -12.1043 0.351865
-30.3919 -12.0957 0.391851
-30.1381 -12.1993 0.480291
-29.8836 -12.2783 0.572828
-28.9863 -11.8116 1.66275
-28.9758 -11.8056 1.76549
-28.6727 -13.0861 1.87477
-28.6504 -13.5104 1.82498
-28.7342 -13.6964 1.85497
-28.8485 -13.7869 1.82526
-28.0971 -17.6914 -1.46659
-27.9307 -17.642 -1.61835
-27.7956 -17.7141 -1.64374
-27.2534 -17.6527 -1.20241
-24.5649 -15.4782 0.97455
-24.5038 -15.2362 0.788501
-24.4694 -15.1657 0.696241
-24.4717 -15.2985 -8.27699
-24.4813 -15.2899 -8.36105
-24.5035 -15.3158 -8.4151
-24.5313 -15.3597 -8.43657
-24.568 -15.4288 -8.47531
-24.6473 -15.5885 -8.63479
-24.7021 -15.6793 -8.73884
-24.8734 -15.9095 -9.07086
-24.9107 -15.9713 -9.19356
-24.9452 -16.0907 -9.35618
-32.5878 -11.2664 -0.554543
-32.0683 -11.3552 -0.375248
-31.8054 -11.4237 -0.231088
-31.5874 -11.5048 -0.0985489
-31.3676 -11.5726 0.0063471
-31.1566 -11.6837 0.0783537
-30.6021 -12.143 0.341292
-30.3179 -12.1497 0.408685
-30.2444 -12.1491 0.449512
-29.9521 -12.2867 0.514339
-29.0316 -12.1511 1.28404
-28.9308 -12.0337 1.4321
-28.9317 -11.8996 1.564
-29.0231 -11.7891 1.86782
-29.069 -11.8165 1.96015
-28.6223 -12.889 1.83934
-28.6874 -13.6632 1.77322
-28.8737 -13.7678 1.7261
-27.0003 -17.5884 -1.01069
-24.5404 -15.4023 0.880884
-24.4427 -15.1509 0.628151
-24.4112 -15.134 0.550142
-24.597 -15.5187 -8.51906
-24.7367 -15.7726 -8.80183
-24.9897 -16.1536 -9.40979
-32.4425 -11.2796 -0.535426
-32.3163 -11.31 -0.51572
-32.2195 -11.3611 -0.4911
-31.9508 -11.4081 -0.333664
-31.4624 -11.5778 -0.0474293
-31.2777 -11.6684 0.0159957
-31.2138 -11.7935 0.0545072
-30.3924 -12.1789 0.377911
-30.2088 -12.212 0.439974
-30.0911 -12.2746 0.465844
-29.8394 -12.3591 0.524935
-29.8098 -12.3221 0.56972
-29.7473 -12.3633 0.580586
-29.571 -12.4583 0.65655
-29.3719 -12.4748 0.762861
-28.9124 -12.1071 1.37713
-28.8349 -12.0147 1.49652
-28.8535 -11.8901 1.65097
-28.9416 -11.8359 1.80849
-28.6084 -13.0593 1.77402
-28.6162 -13.4748 1.75244
-28.7421 -13.7111 1.70458
-27.8937 -17.7015 -1.74554
-26.9019 -17.5132 -0.890284
-24.534 -15.4746 0.901341
-24.5013 -15.325 0.772382
-24.4771 -15.3495 -8.25008
-24.5152 -15.371 -8.35655
-24.5527 -15.4634 -8.40552
-24.7909 -15.8377 -8.89041
-24.9762 -16.0625 -9.18239
-24.9695 -16.0608 -9.27914
-24.9571 -16.0789 -9.32257
-32.6901 -11.2884 -0.670999
-32.5828 -11.2981 -0.686822
-32.1421 -11.4238 -0.451183
-31.8599 -11.4888 -0.294755
-31.6443 -11.5583 -0.16436
-31.5606 -11.6093 -0.101018
-31.3776 -11.6447 -0.0125981
-30.3296 -12.2046 0.401714
-30.2631 -12.1757 0.425656
-30.1527 -12.2463 0.450438
-30.0095 -12.3049 0.484376
-29.9367 -12.3631 0.486863
-29.6654 -12.4241 0.594611
-29.4759 -12.4781 0.705297
-28.9015 -12.2127 1.28623
-28.8888 -11.87 1.76246
-28.9267 -11.8851 1.84173
-28.5823 -12.925 1.76236
-28.6023 -13.3781 1.73591
-28.625 -13.5723 1.67208
-30.0687 -18.2399 -0.996405
-29.9762 -18.1315 -1.12183
-28.2294 -17.6299 -1.65882
-27.9771 -17.6425 -1.75003
-24.4548 -15.2365 0.660844
-24.4224 -15.2313 0.580765
-24.5775 -15.5449 -8.4381
-24.8632 -15.9324 -8.99171
-25.0343 -16.1706 -9.383
-32.9136 -11.3199 -0.907961
-32.7473 -11.2958 -0.798522
-32.4415 -11.3216 -0.624938
-32.3698 -11.3803 -0.600954
-32.2862 -11.4312 -0.556672
-32.0613 -11.4981 -0.398772
-31.7579 -11.5706 -0.243913
-31.3521 -11.7503 0.012056
-30.3584 -12.2478 0.411014
-30.2671 -12.2142 0.418188
-30.1696 -12.3097 0.440308
-30.0349 -12.3501 0.472535
-29.8543 -12.4495 0.505478
-29.7396 -12.447 0.53182
-29.6443 -12.5215 0.584483
-29.2526 -12.5174 0.760641
-29.089 -12.5058 0.896987
-28.9449 -12.4151 1.11486
-28.742 -12.015 1.62545
-28.8176 -11.9423 1.74218
-28.8415 -11.9851 1.82762
-28.6455 -12.2831 1.75201
-28.5942 -12.4401 1.76215
-28.5694 -12.8302 1.76624
-28.6209 -13.0549 1.66323
-28.5958 -13.4136 1.67819
-28.7048 -13.6277 1.56758
-30.3001 -18.4534 -0.805172
-29.8705 -18.0386 -1.2733
-29.7325 -18.0232 -1.23682
-28.1804 -17.6103 -1.75993
-27.9869 -17.7083 -1.86475
-27.899 -17.7475 -1.81762
-27.9098 -17.8076 -1.88544
-24.4652 -15.3976 -8.21765
-24.8831 -15.9857 -8.99489
-24.955 -16.071 -9.07729
-25.0193 -16.1235 -9.30475
-32.5362 -11.4038 -0.735431
-31.6684 -11.6477 -0.174757
-30.2877 -12.2591 0.412829
-29.9582 -12.4289 0.474192
-29.3325 -12.583 0.715556
-29.164 -12.5316 0.807777
-28.9885 -12.4871 1.00256
-28.6966 -12.1314 1.50734
-28.7627 -12.0422 1.74193
-28.6574 -12.1519 1.65524
-28.5322 -12.5615 1.73786
-28.529 -12.7683 1.71554
-28.6043 -13.4513 1.59857
-28.801 -13.6264 1.51702
-30.2705 -18.4005 -0.915903
-30.1907 -18.2699 -1.04751
-30.1233 -18.2074 -1.13143
-30.0543 -18.1187 -1.24769
-28.636 -17.7452 -1.72715
-28.4374 -17.6474 -1.70432
-27.9211 -17.8973 -1.973
-27.8823 -17.9937 -1.99306
-24.4273 -15.3851 -8.13844
-25.0185 -16.155 -9.16033
-25.069 -16.1903 -9.34927
-25.0814 -16.2372 -9.42055
-25.0914 -16.2908 -9.49521
-33.049 -11.3627 -1.06551
-32.8047 -11.3338 -0.94308
-32.6881 -11.3669 -0.849515
-29.9289 -12.5366 0.531584
-29.7558 -12.5526 0.555266
-29.6303 -12.6344 0.627381
-29.4073 -12.5965 0.699651
-29.1993 -12.5967 0.739768
-29.0806 -12.6044 0.83815
-29.0183 -12.5558 0.942765
-28.915 -12.4963 1.10627
-28.5536 -12.312 1.60332
-28.5507 -12.3817 1.6773
-28.5198 -12.4732 1.68122
-28.5154 -12.6623 1.70396
-28.5635 -12.9243 1.63367
-28.6236 -13.0034 1.58615
-28.6534 -13.2443 1.58524
-28.6099 -13.3394 1.60391
-28.6392 -13.5323 1.56531
-28.7457 -13.5857 1.49372
-28.8152 -13.5448 1.43101
-28.9545 -13.5076 1.35697
-30.5956 -18.5716 -0.574519
-30.2515 -18.3513 -1.02976
-29.962 -18.0658 -1.38218
-29.682 -17.9662 -1.36957
-28.2205 -17.6337 -1.86828
-28.1108 -17.6687 -1.89077
-25.0478 -16.1653 -9.2204
-32.9272 -11.3465 -1.05918
-32.6711 -11.445 -0.886602
-28.9509 -12.5593 1.04313
-28.5992 -12.2678 1.47637
-28.4884 -12.58 1.63498
-28.4937 -12.7186 1.64587
-28.5135 -12.8251 1.66063
-28.6298 -13.3881 1.54276
-28.6403 -13.4571 1.52805
-28.7043 -13.5147 1.48915
-29.0986 -13.4462 1.25688
-30.6665 -18.6106 -0.457893
-30.579 -18.5263 -0.717554
-30.2242 -18.3066 -1.08579
-30.1993 -18.2719 -1.12911
-30.1819 -18.2634 -1.24401
-30.0773 -18.1713 -1.35357
-29.8081 -17.9804 -1.43114
-29.3788 -17.879 -1.64801
-29.0934 -17.824 -1.82643
-28.5293 -17.6638 -1.81293
-28.4094 -17.6456 -1.89719
-28.102 -17.7131 -1.98012
-27.9912 -17.9753 -2.09844
-24.7465 -15.9397 -8.76151
-25.0499 -16.2476 -9.17753
-25.0784 -16.2151 -9.26573
-25.1141 -16.2574 -9.38645
-25.1263 -16.3156 -9.46143
-25.1397 -16.3646 -9.54409
-33.2823 -11.4306 -1.3072
-33.0491 -11.3721 -1.17752
-32.8138 -11.4289 -1.03655
-29.7557 -12.682 0.616434
-29.1602 -12.711 0.788948
-28.9928 -12.6363 0.962732
-28.8609 -12.559 1.16562
-28.7188 -12.4547 1.29011
-28.5178 -12.4124 1.47024
-28.5052 -12.4471 1.59546
-28.501 -12.8083 1.58673
-28.5792 -12.8965 1.52843
-28.6645 -13.3083 1.52969
-28.8698 -13.4268 1.31843
-28.9859 -13.388 1.23052
-30.7687 -18.6826 -0.287818
-30.7013 -18.5515 -0.591494
-30.4982 -18.5111 -0.846264
-30.4219 -18.4832 -0.879135
-30.391 -18.4695 -0.945866
-30.2359 -18.3318 -1.13264
-29.9832 -18.1636 -1.46961
-29.8631 -18.0402 -1.50124
-29.6455 -17.929 -1.51469
-29.2733 -17.8411 -1.79975
-28.3079 -17.6573 -1.97609
-28.1852 -17.6597 -1.95246
-33.157 -11.3949 -1.21596
-32.941 -11.3962 -1.15423
-29.4147 -12.7817 0.724796
-29.3332 -12.7438 0.73317
-29.0509 -12.75 0.89728
-28.7666 -12.5335 1.26438
-28.5967 -12.446 1.35927
-28.5901 -12.3695 1.41137
-28.4892 -12.5536 1.51789
-28.4819 -12.6782 1.55811
-28.6693 -12.898 1.46499
-28.6906 -13.3876 1.47419
-28.7661 -13.4328 1.39896
-29.0958 -13.2919 1.0965
-30.7803 -18.6014 -0.450114
-30.7017 -18.5669 -0.722892
-30.3936 -18.5017 -1.00958
-30.333 -18.4788 -1.07515
-30.1122 -18.2938 -1.40453
-29.7385 -17.9727 -1.54731
-29.5178 -17.9067 -1.60793
-29.436 -17.9029 -1.71524
-29.1068 -17.8175 -1.92658
-28.4792 -17.6728 -2.00365
-28.2262 -17.7018 -2.03281
-28.1322 -17.9889 -2.19663
-27.9862 -18.0748 -2.11822
-22.9511 -15.8524 -1.57672
-24.7677 -16.0193 -8.77205
-24.9393 -16.2131 -8.99313
-25.0866 -16.2959 -9.23207
-25.0907 -16.2594 -9.25277
-25.1231 -16.3019 -9.35461
-25.1874 -16.4311 -9.58137
-33.3753 -11.4763 -1.47787
-33.1247 -11.4037 -1.29249
-33.0095 -11.416 -1.24388
-32.9311 -11.458 -1.19305
-28.6469 -12.5365 1.31551
-28.5203 -12.7638 1.49747
-28.5787 -12.8211 1.44751
-28.9308 -13.3069 1.2257
-29.0031 -13.266 1.14161
-30.8939 -18.6411 -0.342586
-30.7955 -18.5842 -0.552237
-30.6344 -18.5614 -0.77846
-30.5192 -18.5584 -0.91197
-30.4496 -18.5104 -0.93554
-30.278 -18.4908 -1.17671
-30.2476 -18.3783 -1.19296
-30.0061 -18.2789 -1.50684
-29.856 -18.1182 -1.56017
-29.7226 -18.0435 -1.62194
-29.5932 -17.9569 -1.64168
-29.3664 -17.9011 -1.81927
-29.2423 -17.8948 -1.93184
-28.9625 -17.7613 -2.02402
-28.8434 -17.7377 -1.99751
-28.369 -17.6964 -2.07549
-28.2502 -17.8741 -2.20175
-23.0752 -15.9374 -1.42896
-22.9687 -15.9719 -1.56224
-25.0191 -16.352 -9.08994
-25.0831 -16.4021 -9.17666
-25.1608 -16.3735 -9.46605
-25.2826 -16.5573 -9.71194
-25.2919 -16.5735 -9.7751
-33.202 -11.4705 -1.4073
-29.3289 -12.9044 0.795205
-29.3299 -12.8063 0.749079
-29.2044 -12.9547 0.855645
-29.0621 -12.8873 0.921839
-28.5379 -12.5615 1.39955
-28.505 -12.652 1.47185
-28.6529 -12.7872 1.40516
-29.0531 -13.1462 1.03251
-29.2291 -13.2206 1.00471
-29.4538 -13.1365 0.930537
-30.9763 -18.7916 -0.111423
-30.91 -18.7105 -0.221682
-30.8781 -18.6002 -0.477891
-30.7858 -18.6594 -0.7312
-30.6668 -18.619 -0.810505
-29.4719 -17.9638 -1.76104
-28.5355 -17.701 -2.10725
-28.2753 -17.7511 -2.12651
-22.9211 -15.9469 -1.59285
-24.8307 -16.083 -8.83911
-24.8749 -16.1783 -8.9098
-24.9499 -16.3033 -9.00144
-25.1147 -16.3761 -9.26146
-25.1232 -16.3496 -9.29238
-25.1771 -16.3923 -9.43467
-33.4208 -11.5182 -1.59555
-33.2805 -11.5324 -1.55575
-33.0454 -11.4992 -1.31454
-29.1046 -12.9924 0.927132
-28.6155 -12.6242 1.34144
-28.5686 -12.7046 1.40647
-28.8398 -13.2117 1.3603
-28.8546 -13.2702 1.32406
-28.9072 -13.2266 1.23684
-28.9697 -13.1594 1.12565
-29.154 -13.1217 0.95317
-29.3367 -13.1552 0.943461
-30.9936 -18.6534 -0.400112
-30.8533 -18.6064 -0.584023
-30.8392 -18.6204 -0.656984
-29.161 -17.9276 -2.05624
-28.9228 -17.7887 -2.13876
-28.8097 -17.7399 -2.08563
-28.4231 -17.7774 -2.19106
-23.047 -16.0658 -1.49226
-23.0069 -16.0801 -1.54638
-25.0394 -16.4392 -9.09951
-25.3426 -16.6087 -9.76481
-25.353 -16.63 -9.82153
-25.3658 -16.655 -9.89395
-25.3764 -16.6953 -9.98413
-33.5265 -11.551 -1.69963
-33.1514 -11.5499 -1.44131
-29.0302 -13.0059 1.01224
-28.6706 -12.6936 1.34426
-28.8892 -13.1416 1.2736
-30.9563 -18.6375 -0.542614
-29.0231 -17.9043 -2.17996
-28.6777 -17.7223 -2.12291
-28.6066 -17.7655 -2.20018
-28.4078 -17.9076 -2.29751
-22.8878 -16.0174 -1.60962
-25.1553 -16.5241 -9.24512
-25.1648 -16.4471 -9.31617
-25.1716 -16.4325 -9.35154
-25.1795 -16.4317 -9.38836
-25.2178 -16.4588 -9.50978
-25.2279 -16.4663 -9.55249
-25.265 -16.5193 -9.59766
-25.3395 -16.6026 -9.67826
-33.633 -11.6113 -1.83674
-33.4075 -11.5448 -1.68208
-33.209 -11.6199 -1.51459
-31.0995 -18.7032 -0.337916
-31.114 -18.6918 -0.471411
-30.8874 -18.6334 -0.614181
-28.8488 -17.8603 -2.23789
-28.7622 -17.778 -2.17902
-28.5485 -17.8554 -2.27715
-23.0228 -16.1978 -1.53025
-22.9171 -16.1573 -1.61949
-22.8971 -16.0958 -1.63035
-25.0543 -16.5181 -9.09822
-25.1467 -16.5832 -9.2011
-25.1827 -16.5848 -9.25493
-25.203 -16.5788 -9.30724
-25.2992 -16.5705 -9.63127
-25.3792 -16.6427 -9.76002
-25.4258 -16.7093 -9.93091
-33.5094 -11.5728 -1.80555
-33.3293 -11.614 -1.66748
-33.2635 -11.6046 -1.58255
-28.9292 -13.0402 1.19904
-31.9525 -18.8593 -0.299549
-31.1716 -18.7841 -0.242676
-31.0285 -18.7272 -0.610562
-29.0157 -18.0367 -2.24951
-28.9104 -17.9808 -2.29462
-28.7005 -17.8525 -2.27407
-28.5204 -17.9498 -2.33985
-28.4561 -18.0348 -2.35665
-22.9438 -16.2418 -1.60476
-24.9574 -16.455 -8.99804
-25.1961 -16.5859 -9.28266
-25.214 -16.5174 -9.37911
-25.2574 -16.507 -9.55443
-25.3856 -16.6578 -9.69017
-33.859 -11.734 -2.08126
-33.7355 -11.6397 -1.97758
-33.6162 -11.6199 -1.96097
-33.4207 -11.5995 -1.76125
-32.0624 -18.8166 -0.360318
-31.1951 -18.8047 -0.578096
-28.7683 -17.9526 -2.3303
-23.0634 -16.3237 -1.47919
-23.0301 -16.3258 -1.52019
-25.049 -16.5883 -9.08982
-25.2319 -16.6695 -9.30169
-25.2279 -16.6367 -9.31931
-25.4382 -16.7022 -9.7491
-25.4767 -16.7395 -9.89692
-33.4871 -11.6451 -1.88647
-33.4006 -11.6584 -1.78266
-31.8886 -18.9225 -0.367977
-31.5891 -18.9512 -0.290873
-31.2735 -18.8102 -0.312132
-28.9364 -18.0878 -2.31639
-28.8338 -18.1019 -2.3691
-28.7062 -17.9154 -2.31134
-28.5412 -18.0427 -2.3796
-23.1785 -16.3082 -1.27641
-22.9284 -16.3611 -1.61894
-33.8769 -11.7692 -2.24022
-33.7454 -11.6942 -2.13248
-33.5969 -11.7397 -2.09738
-31.4766 -18.9129 -0.303243
-31.3687 -18.8734 -0.292134
-31.2892 -18.8276 -0.514577
-31.2559 -18.9476 -0.617418
-23.0068 -16.4379 -1.55209
-22.9568 -16.4431 -1.60302
-25.1514 -16.7259 -9.17318
-25.2369 -16.7645 -9.27305
-25.2869 -16.711 -9.37532
-25.3258 -16.733 -9.44114
-25.499 -16.7442 -9.76964
-25.5245 -16.7628 -9.86729
-33.9555 -11.8427 -2.336
-33.4626 -11.7399 -1.88431
-31.8338 -18.9788 -0.439088
-31.5498 -18.9395 -0.384477
-31.331 -18.8417 -0.469792
-31.3104 -18.8847 -0.558283
-28.7488 -18.1879 -2.43157
-28.5057 -18.2789 -2.4761
-23.1747 -16.4016 -1.31813
-22.9278 -16.4744 -1.64205
-25.3085 -16.806 -9.35463
-33.9558 -11.8727 -2.42677
-33.8898 -11.8208 -2.34986
-33.807 -11.7674 -2.28009
-33.7244 -11.7557 -2.22995
-31.7118 -18.9902 -0.458639
-31.4041 -18.8781 -0.353736
-31.3643 -18.8568 -0.414629
-28.6664 -18.1817 -2.44691
-28.5716 -18.2347 -2.46882
-23.1578 -16.4766 -1.37847
-23.1211 -16.5289 -1.44313
-22.9621 -16.5516 -1.63325
-22.8879 -16.5099 -1.67583
-25.3148 -16.8616 -9.35021
-25.395 -16.7976 -9.50149
-25.5586 -16.7773 -9.8307
-25.6015 -16.8104 -9.90006
-34.0719 -12.0204 -2.64707
-33.9687 -11.9437 -2.53418
-33.7317 -11.8334 -2.30015
-33.6358 -12.1369 -2.19742
-31.8882 -19.0297 -0.485389
-31.5901 -18.9778 -0.463386
-31.484 -18.9348 -0.465344
-31.4037 -18.9182 -0.527386
-22.9307 -16.5872 -1.66804
-25.3829 -16.8889 -9.42385
-33.8954 -11.8879 -2.4631
-33.8969 -11.8548 -2.40815
-33.8306 -11.8331 -2.37219
-33.7748 -11.7963 -2.29885
-33.7256 -12.1102 -2.35331
-31.8707 -19.0865 -0.53722
-31.619 -19.0511 -0.539878
-31.4847 -18.9805 -0.534425
-23.1494 -16.5964 -1.39246
-23.1162 -16.6446 -1.46956
-23.0798 -16.6871 -1.53067
-22.9908 -16.6208 -1.62315
-25.6539 -16.8295 -9.85991
-25.6842 -16.8483 -9.94952
-34.0611 -12.1108 -2.83158
-33.9361 -12.0206 -2.6583
-33.8886 -11.9414 -2.5349
-23.0477 -16.7366 -1.59036
-22.9285 -16.7001 -1.71182
-25.502 -16.8415 -9.61372
-34.1771 -12.1825 -2.93399
-33.8178 -11.8994 -2.43843
-33.8367 -12.1205 -2.59067
-23.0974 -16.746 -1.4926
-23.0708 -16.7855 -1.55696
-23.0094 -16.7971 -1.6518
-22.9572 -16.7711 -1.71585
-25.5221 -16.9532 -9.55379
-25.5415 -16.8905 -9.61376
-25.6806 -16.8729 -9.82328
-25.7619 -16.8602 -9.9393
-34.2398 -12.2454 -3.01812
-34.104 -12.2004 -2.96
-33.9413 -12.1683 -2.80657
-33.8321 -11.9856 -2.50195
-33.8317 -12.2525 -2.58673
-23.0331 -16.8415 -1.61981
-22.935 -16.7958 -1.75553
-22.9021 -16.7704 -1.75954
-25.7536 -16.8806 -9.88159
-34.3427 -12.4023 -3.18673
-34.1728 -12.2537 -3.05166
-34.023 -12.2253 -2.94807
-33.9182 -12.2827 -2.78391
-22.9684 -16.8719 -1.73998
-22.9416 -16.8518 -1.76725
-25.5839 -16.9953 -9.60144
-25.6142 -16.9289 -9.67619
-25.8361 -16.8993 -9.94023
-25.8358 -16.9012 -10.0003
-34.3687 -12.507 -3.36436
-34.2797 -12.3492 -3.16114
-34.2349 -12.2869 -3.08373
-34.0969 -12.2828 -3.05281
-22.9064 -16.8387 -1.79121
-25.5846 -17.0194 -9.59314
-25.8074 -16.9646 -10.1282
-34.2889 -12.4012 -3.24795
-34.259 -12.3128 -3.12252
-34.2241 -12.3273 -3.16671
-34.0526 -12.345 -3.05783
-33.9856 -12.4535 -2.98095
-22.9902 -17.0048 -1.74381
-22.9684 -16.9836 -1.78447
-25.6228 -17.0323 -9.62115
-25.6432 -17.0076 -9.65376
-25.6662 -16.9794 -9.69067
-25.6919 -16.9578 -9.73423
