1.50887 -1.93328 3.39838
-0.476712 3.95358 0.836443
-1.0892 -4.00672 -1.84327
-1.32857 -3.94902 -1.89725
0.341834 2.81611 3.56869
-0.455803 -2.40544 3.49863
-0.459295 -2.50439 3.51563
1.00689 -1.45113 3.29578
1.08062 -1.49152 3.30351
-1.39088 -2.18824 4.62471
0.161616 3.95541 0.701719
0.00364447 3.99248 0.885048
0.193496 3.98586 0.854899
-0.0728683 3.94863 0.719194
0.660522 -3.86063 -2.35489
0.563441 -3.84128 -2.4935
0.738937 -3.82522 -2.47668
2.16154 -4.46615 2.8022
3.13668 3.23979 -0.174679
3.29778 3.13762 -0.181656
0.345961 3.9904 0.879057
0.121759 4.01523 0.985545
3.9878 2.48833 0.714518
3.856 2.65042 0.70623
4.24376 -3.36028 1.73631
4.23131 -3.38419 1.54041
-0.303617 -4.62024 0.71222
-1.9816 0.284239 4.16829
-2.12162 0.24646 4.14904
0.735694 3.97251 0.853554
0.964399 -3.5573 -3.46601
-3.55209 -2.15457 -1.22026
-3.47087 -2.21394 -1.35603
0.922172 3.97318 0.915597
-3.49223 -3.69053 2.52326
0.393163 -3.16013 3.15152
-3.23868 -1.84709 4.18149
0.117966 -0.249632 3.06602
2.89263 1.81539 4.5187
1.76882 -4.05961 3.17621
1.79831 -3.97642 3.08223
4.97442 -1.36032 -1.44761
1.7769 3.88629 1.02625
0.711318 3.89387 2.93839
0.711475 3.86283 3.01084
1.16768 -3.74467 -2.72199
1.06361 -3.703 -2.90771
3.18555 0.93849 4.22478
4.06532 0.714721 3.28239
4.04114 0.65985 3.32701
-2.43748 2.6311 -2.51895
-2.45801 2.55331 -2.8729
3.75053 -2.76092 -2.30023
3.97999 -2.6213 -2.21193
4.68274 -0.181006 1.05257
4.71274 -0.33341 1.20673
4.74814 -0.360565 1.09085
-4.11922 -2.81654 2.53531
1.07191 -4.53205 0.668172
1.24029 -4.54071 0.729041
-3.95629 -1.40673 2.41197
-3.9425 -1.38943 2.50116
1.44603 -4.5546 0.86786
1.67344 -4.53083 0.839347
3.37875 2.82911 -1.48823
3.49661 2.71286 -1.52642
0.479596 1.77375 3.18808
0.399134 1.82797 3.12048
4.78292 0.828645 -0.947589
4.71606 1.00027 -1.22274
4.74125 1.01412 -0.854005
1.15554 0.440404 2.89154
0.624294 -0.830144 3.085
3.37355 3.10935 1.10827
3.43092 3.06397 0.973513
3.20689 3.24173 0.942046
-0.234332 -3.53824 -3.92961
-0.11727 -3.78679 -2.91684
-0.315177 -3.79814 -2.91078
-0.16194 -3.72355 -3.16333
4.08493 0.128459 2.69482
-0.148653 -1.38492 3.27723
1.34327 -0.126227 2.6035
2.73566 -4.33244 0.813451
3.98644 -2.51748 3.94947
-0.381167 1.9504 2.74575
-0.365267 1.89163 2.80607
3.11091 -4.22605 0.926941
2.96791 -4.26541 0.839714
1.27225 0.175982 2.6019
1.29615 0.0781022 2.6075
4.29596 -2.0864 -2.49158
4.11525 -2.16974 -2.68686
4.25338 -2.01237 -2.65381
1.30384 0.299662 2.6695
4.25248 2.01685 0.810717
4.18166 2.15341 0.886239
3.44549 -4.03262 0.711401
3.5902 -3.955 0.713827
3.54213 -4.00428 0.853195
4.45226 1.48668 0.881652
4.46447 1.31876 1.1049
4.52876 1.32214 0.781272
1.50736 -0.478434 2.5837
4.36784 1.70541 0.873311
-0.367342 -3.55281 3.70633
-0.380207 -3.4714 3.69852
1.81027 -0.254289 2.79645
1.82964 -0.351209 2.77419
1.88591 -0.354897 2.85511
0.512503 -2.40352 2.55964
4.64002 0.115351 0.967624
4.63507 0.00469344 1.04843
4.66545 -0.000940983 0.919011
-3.29632 -1.16623 4.18287
4.66071 0.551434 0.910125
4.62941 0.28446 1.01884
-2.9311 -2.86982 -1.80904
-2.794 -3.05734 -1.78194
3.20206 3.01978 2.93999
3.78384 2.7189 0.86325
3.85753 2.62438 1.06932
4.63537 0.925225 0.861261
4.60512 1.0692 0.84011
-1.82939 2.45285 4.10118
-0.361095 -2.0659 3.3782
4.18956 -3.41357 1.06612
4.24146 -3.34493 0.904887
-3.54271 -0.927522 -2.12499
-3.58823 -0.685877 -2.05384
-2.14387 0.869459 3.94973
-2.19565 0.949022 3.98435
-2.21255 0.80772 3.99631
1.01729 -3.90295 -2.05715
1.14238 -3.91774 -1.92643
-0.186485 3.30757 -2.81689
0.0242752 3.32625 -2.80937
4.44577 -3.05036 1.10352
4.49389 -2.95839 0.894172
-3.08247 -3.61896 2.85265
3.99298 0.022542 2.79131
4.03863 -0.00233844 2.72284
4.03378 0.0656035 2.74331
-3.982 -0.488609 -0.748278
-4.03025 -0.579109 -0.535313
-4.03366 -0.392552 -0.606666
1.30868 3.35796 -2.46934
1.07089 3.37645 -2.54456
3.17987 2.77893 3.52022
4.93667 -0.6996 0.854391
4.97378 -0.822272 0.892851
0.72358 -4.40425 2.64487
0.786505 -4.32037 2.73099
0.950748 1.2735 3.63347
1.82377 -4.38399 0.229736
4.84798 -2.20726 0.760191
2.67162 -4.08817 -0.299784
2.79158 -4.0966 -0.182297
-4.02507 -0.482776 1.67205
-4.04302 -0.617055 1.68297
4.1975 -1.02825 3.60921
4.13913 -1.0151 3.71809
4.17883 -1.09026 3.68502
3.93893 -3.49913 -0.212601
4.06516 -3.35545 -0.371194
4.08282 -3.38189 -0.166396
-3.5405 -1.91377 -1.39824
-3.61356 -1.73101 -1.35502
-3.49864 -1.81745 -1.5391
4.7424 0.200787 0.538456
4.7861 0.111229 0.37333
4.78262 0.29837 0.339117
-4.36586 0.648243 0.5317
-4.37081 0.78681 0.483743
-0.391938 4.10699 1.90417
1.38483 3.29206 -3.14576
-4.20301 -0.422552 0.927014
-4.20699 -0.230638 0.988848
-3.92705 -0.455244 1.87237
-4.30821 1.34686 0.343301
-4.13356 1.84542 0.254938
-4.16815 1.68699 0.126824
-4.24823 1.56626 0.300651
2.37628 -3.74846 2.98457
4.33781 -2.85686 -1.16589
4.18658 -3.05411 -1.04737
4.19313 -2.94596 -1.29526
2.8312 2.52604 4.35178
1.61335 -3.36924 2.80362
1.52189 -3.34734 2.83963
-4.29431 0.300175 0.182071
-4.28519 0.185845 0.302037
-4.32743 0.367805 0.381177
1.12346 -0.597185 2.90023
0.845223 2.66769 3.36997
2.57362 -3.00222 -4.28
-2.53693 -3.84909 2.72793
-1.16146 2.96532 -4.13801
-2.19277 -3.54079 -2.11443
-2.03341 -3.622 -2.198
-1.99638 -3.68301 -2.04951
4.09203 -0.812249 3.66916
4.03741 -0.803335 3.73547
2.52611 3.39206 2.90967
2.36108 3.47703 2.82507
4.4867 0.117392 1.65688
4.75547 0.0194296 0.547624
3.40898 2.21285 -2.79984
-4.13526 -1.16058 0.14354
-4.153 -0.922769 0.237308
2.77559 -4.14925 -0.024942
3.07784 -4.05139 0.0397829
-0.802777 -4.31853 3.13941
-0.773146 -4.35061 3.03971
-4.18482 -0.335834 0.29854
-3.59272 2.73966 0.500242
-3.23029 2.98529 0.358264
4.19074 -0.223754 2.63639
4.22573 -0.283775 2.65882
-0.359926 -1.953 3.45539
-2.6367 -2.84773 -2.62973
3.67564 0.849629 -4.21737
3.6535 0.764017 -4.35794
3.74763 -3.03998 3.91001
3.29385 -1.63588 4.31571
1.75813 3.0794 -4.17225
-3.07364 3.14651 0.583535
-3.05534 3.11401 0.398698
0.0023233 3.47649 -1.05582
-0.000855776 3.47228 -1.21418
-0.180157 3.46981 -1.04617
0.945845 -0.687351 2.99449
1.44614 -4.39424 2.88178
-3.53271 -3.27011 0.0601625
-3.59055 -3.28791 0.246727
-3.69433 -3.09185 0.143646
-0.434928 -2.64557 3.49038
-0.486055 -2.70538 3.58203
1.74741 -3.57233 -3.12835
4.55244 -0.424634 2.06711
4.49759 -0.327968 2.07421
-2.90864 3.22458 0.497284
-3.08448 2.89373 -0.307144
-3.07574 2.84187 -0.474314
-3.28868 2.75655 -0.240903
-4.23958 -1.32011 1.62197
-3.30097 -3.56336 0.126748
-3.41797 -3.52038 0.314091
-3.45867 -3.42408 0.187853
-3.12711 -1.66379 -3.14573
1.46025 -0.684125 2.75539
1.49664 -0.76115 2.85431
3.23603 2.08956 -4.10334
-3.14132 -3.76164 0.268818
-3.29644 -3.62327 0.276315
-3.25673 -3.71007 0.4277
-2.61668 -3.85367 -0.4849
-2.60992 -3.77058 -0.69356
-2.39351 -3.93059 -0.602727
3.77472 -3.17774 3.69376
3.74134 -3.25585 3.67563
3.10585 2.30624 -3.70944
3.03807 2.4067 -3.53661
3.18894 2.26053 -3.542
3.89428 -3.13573 3.49714
-2.59997 -4.17381 0.470219
-2.76057 -4.05067 0.347817
-2.58825 -4.13294 0.289387
-2.9169 -3.98124 0.44831
-4.08118 -2.6703 2.67283
-4.0085 -2.61274 2.75399
-3.51852 -1.32441 3.7163
-2.00313 -4.42362 1.14779
-2.46304 -4.18357 0.232689
3.08275 3.13263 -1.17131
-1.579 -4.51396 1.22499
-1.66417 -4.50159 1.07514
-0.656064 3.86809 0.574378
-0.698882 3.82115 0.406967
-0.867967 3.84629 0.559261
-0.967316 3.78038 0.357034
4.85995 -0.169307 -2.03555
4.83046 -0.0338588 -2.16189
-1.26633 3.19661 3.62004
-1.32573 3.28927 3.68464
-1.34998 3.18232 3.67616
2.83983 -2.29187 4.15492
-0.428284 -4.22037 3.31266
-0.342628 -4.19362 3.3235
-1.74506 -2.03551 4.82191
4.41797 0.513284 1.9144
1.43266 3.19048 -3.77199
-0.0455369 3.90851 0.57696
0.568114 -3.02969 2.88413
-1.31517 -4.58218 0.583058
0.497253 3.88391 0.463633
0.529927 3.95238 0.735842
-0.127347 -4.12386 -1.44224
0.0119556 -4.11621 -1.51248
-1.89552 -3.93362 3.50236
-1.99453 -3.862 3.54225
0.726716 3.87361 0.430901
0.728079 3.91339 0.609068
-0.526663 -3.07282 3.65898
-0.488688 -2.95008 3.61666
4.56106 -0.283532 1.78731
4.52951 -0.312923 1.94826
-0.482518 -4.59618 0.48846
-0.301922 -4.56736 0.444765
0.98156 3.93065 0.721655
-4.03422 -0.700673 1.74691
-3.85137 0.884618 3.42904
0.738017 -0.0412562 2.73997
1.40473 3.89786 0.724168
0.242067 -1.05431 2.91943
0.247226 -0.938248 2.89528
1.56513 3.87872 0.707288
4.73074 0.657823 0.477535
4.68512 0.70486 0.734494
0.256761 -4.49356 0.392735
1.21175 -3.82395 -2.35263
1.46414 -3.8045 -2.32394
1.33051 -3.84589 -2.20216
-1.37025 -3.14977 4.30523
-1.33514 -3.02598 4.35766
-2.82371 -3.97056 2.42828
-2.9525 -3.94871 2.46487
0.618945 3.63543 -0.482176
0.450974 3.61967 -0.542632
0.399301 3.67313 -0.323635
-2.01947 2.70621 -3.61334
-3.99151 -1.03805 1.98595
-2.55457 2.20136 -3.98396
1.15744 -4.47829 0.44034
1.63418 -1.66104 3.21037
1.70764 -1.58434 3.14922
1.60442 -1.58449 3.17027
2.76398 3.5046 0.874474
2.59549 3.58609 0.953528
-3.60809 -0.0955227 2.35657
-3.57149 -0.0880842 2.43588
-3.59576 -0.0383768 2.41808
1.39214 -4.47737 0.477645
1.44809 -4.52151 0.684148
-2.79472 -4.15311 1.99761
-2.75334 -4.18489 1.89121
0.357431 -2.154 2.50444
-2.70561 -3.90794 2.48675
-2.84207 -3.88996 2.53914
1.35473 3.36057 -2.14648
-3.35951 -3.44641 0.00430226
-2.96587 3.05084 3.98476
4.45451 -0.178 1.98457
4.46879 -0.258223 2.0511
3.35565 3.12818 0.752555
3.0819 3.3179 0.646687
2.15564 -4.42052 0.588142
2.33356 -4.4206 0.767307
3.51072 2.99801 0.575377
3.60551 2.91315 0.908822
3.66199 2.85787 0.601183
4.23977 0.478952 2.61067
4.26588 0.565529 2.55092
4.23557 0.569374 2.67147
-0.41473 -4.21426 -0.685493
-0.475694 -4.20474 -0.943036
-0.209214 -4.21536 -0.926814
-3.96749 -1.91584 -0.33599
4.18303 0.324607 2.65085
1.08406 -3.4035 3.11024
-3.17124 0.476121 -3.82862
-1.67372 -1.72134 4.84861
-1.71143 -1.62202 4.87053
4.1027 2.33912 0.675883
1.80065 -4.02648 -0.697694
2.03692 -3.9703 -0.816081
3.34984 -4.04456 0.571512
3.49067 -3.97751 0.578055
4.39242 1.78626 0.562479
4.32132 1.85686 0.783531
4.38584 1.72638 0.720126
4.32802 1.95685 0.526766
0.70811 -1.58073 3.16162
4.51133 1.45396 0.62151
4.5896 1.3161 0.492893
4.49321 1.57288 0.502649
2.74213 2.74742 -3.06871
2.98467 2.55523 -2.78522
2.91985 2.58111 -3.14778
1.66095 -0.945493 2.93219
1.77193 -1.01464 2.90077
0.986197 -2.81183 2.92208
4.58712 1.18636 0.735779
3.30378 -0.673236 4.02652
-3.82148 2.24329 -0.0982588
-3.94601 2.00781 -0.124542
-3.96008 2.06859 0.0139526
4.36423 -3.15637 0.82148
4.22346 -3.34123 0.616038
4.37761 -3.12904 0.643205
-0.472582 3.10133 -4.24273
0.915497 3.54358 -0.779326
0.992753 3.60964 -0.566128
1.14694 3.56302 -0.721011
4.86697 -0.391735 0.520564
4.81926 -0.372812 0.722745
2.75859 3.04543 -1.84711
4.73903 -0.237653 0.854185
4.76112 -0.155057 0.676654
4.70392 -0.103497 0.850651
1.98667 -1.30298 2.97841
4.66421 0.0923936 0.867743
1.00152 -4.29611 -0.162854
1.21017 -4.18496 -0.381582
2.5145 3.4588 -0.555369
2.59116 3.41301 -0.746766
2.40868 3.44738 -0.770784
-0.0492761 3.53061 3.00672
-0.0991053 3.46016 3.01792
4.65725 -2.61786 0.834007
4.59676 -2.75802 0.807465
4.61117 -2.72671 0.660595
4.51215 -2.91623 0.687839
4.75613 -2.41914 0.757837
-3.64279 -0.0386407 2.33351
5.00706 -0.798983 0.560427
4.97573 -0.756947 0.717896
4.99949 -0.887157 0.78509
5.04837 -0.962373 0.469502
4.85168 -0.468414 0.79883
4.88978 -0.563544 0.830596
4.8854 -0.520522 0.726684
4.93327 -0.631264 0.717754
2.96409 2.15754 4.44234
4.92584 -1.96575 0.668243
4.89898 -2.089 0.5934
-3.58203 0.147196 -2.32297
-3.54489 0.322755 -2.47195
-0.663547 3.94218 2.94469
-4.33232 -2.41542 1.86214
-1.87855 3.88997 1.57741
-2.02425 3.85426 1.69035
-1.32671 3.70833 3.48789
-1.26521 3.66524 3.51742
0.589061 -2.51816 2.68007
2.68799 3.13125 3.45351
2.79514 3.10859 3.38579
2.70818 3.19152 3.29083
1.39537 -4.30276 2.97454
1.34211 -4.22389 3.01185
0.920091 0.344038 3.06224
-1.27703 2.36038 3.7455
4.16647 -2.68995 3.3269
-1.26544 2.8819 -4.39443
-4.16415 1.48179 -0.158186
-4.21061 1.53746 0.0750676
3.75217 2.73916 -0.584678
3.65221 2.8566 -0.34111
0.166375 3.41196 -2.14867
0.30672 3.40197 -2.32791
0.106149 3.38675 -2.36364
-3.18047 -0.72778 4.24003
1.38827 1.0787 3.60005
1.35462 1.01829 3.54567
-4.26059 0.533213 -0.198725
1.09337 -4.62316 1.23369
1.32494 -4.58697 1.03872
-4.00746 2.0797 0.209605
-4.07568 1.86308 0.0687123
-4.09696 1.72515 -0.0794369
1.53256 2.81915 3.76555
1.53641 2.90166 3.78767
1.46063 2.91375 3.7555
2.99708 -0.88025 3.96257
3.00157 -0.802069 3.96638
1.23278 -3.99978 3.03307
1.52059 -0.147989 2.6995
1.39424 -0.080724 2.68707
-1.82589 3.89507 3.17897
-1.61472 0.825298 3.59065
2.90321 0.523259 3.94243
0.0766674 -3.36214 -4.52802
0.181105 -3.35779 -4.52217
0.128511 -3.39564 -4.40252
-3.25617 1.01653 4.16489
2.18047 -4.37529 0.411582
2.1666 2.58598 4.33061
0.389112 -3.61129 -3.45157
0.403881 -3.5685 -3.60086
-3.97951 -2.4398 0.0561881
-3.92431 -2.49588 -0.0686279
-3.11344 -0.212751 -4.12389
-3.09828 -0.0696761 -4.24248
-4.0507 -1.51015 -0.176796
-4.13664 -1.77149 0.201069
0.530845 -0.956929 3.10962
0.607665 -0.941582 3.13634
0.556043 -0.875813 3.08942
2.42187 0.193125 3.46072
-3.72756 0.215675 -1.74831
-3.70862 -0.0114257 -1.77508
-3.78153 0.0452126 -1.57349
3.79453 -0.202921 3.28848
3.77951 -0.14836 3.22318
3.70936 -0.155819 3.31615
-3.94285 -1.50199 2.46977
-3.96511 -1.49135 2.37684
-4.00401 -2.50786 0.227451
-2.89423 -4.16621 1.52581
-2.8252 -4.19704 1.43401
-2.86459 3.14794 0.0720408
-3.06319 3.05018 0.172151
-2.8855 3.18908 0.28426
0.160083 -4.0708 -1.65247
1.85458 3.03378 3.94293
1.91246 2.9473 4.01607
-0.402857 2.1044 2.75973
-0.388324 2.02212 2.71139
-0.306394 2.02814 2.6864
3.25014 3.0438 -1.0966
-3.81511 -0.365458 -1.32403
-3.81596 -0.501435 -1.27433
-3.90803 -0.25674 -1.07952
0.739002 -0.689705 3.01342
0.760716 -0.573372 2.97333
0.62303 -0.613797 2.99457
-0.544151 -2.72532 3.70873
3.47231 -3.72298 3.55833
-2.11959 3.47912 0.0430189
-3.08539 -3.68027 -0.0502051
-3.34345 -3.39611 -0.156309
-3.21703 -3.45868 -0.272291
1.0349 -4.6216 1.97491
1.08022 -4.62794 1.73966
-3.50294 2.53972 3.842
-1.91133 3.61779 0.35403
-2.94837 -3.84398 0.0699427
-2.93868 -3.91765 0.27101
-1.70364 3.64786 0.305133
0.22293 -0.805941 2.8683
-2.73677 -3.92838 -0.0968283
-2.53316 -4.03945 -0.12451
-2.58343 -4.0729 0.0555582
2.10148 -4.09647 3.33531
2.1695 -4.06993 3.36019
2.1082 -3.98741 3.28072
0.285865 3.74533 3.03018
-2.73178 2.278 -2.93153
-3.58125 -3.70088 1.68578
-3.63767 -3.65452 1.85237
-3.60783 -0.392882 2.67632
-3.39395 1.17927 4.10901
0.131418 0.110057 3.24858
0.0154664 -0.192335 3.18097
-2.6754 -2.54685 -3.08065
-2.58663 -2.50025 -3.4157
-4.3107 -2.49906 1.98475
0.583616 1.76975 3.27977
2.22508 -2.48251 3.71471
-0.389389 3.82685 0.316637
-0.75246 3.77335 0.261875
-1.45855 -4.42361 -0.0332414
-1.30453 -4.50231 0.100589
-1.54743 -4.50212 0.261326
1.55705 -1.99916 3.42068
-0.14687 3.82032 0.273031
-0.0556595 3.86327 0.429776
1.6332 0.292155 3.11734
-0.528181 -2.36608 3.68414
-0.556053 -2.28205 3.76132
-0.570257 -2.36411 3.77706
0.0538722 3.81297 0.254716
-3.28761 0.474973 3.74516
-1.08739 -4.42286 -0.10263
-0.273005 -2.90354 3.42139
-2.58384 -0.971941 4.76957
-3.62953 -0.160189 2.30429
-3.58593 -0.150042 2.3987
-0.966606 -4.50671 0.0855609
-0.792089 -4.47047 0.00786912
-0.916739 -4.56208 0.260395
0.57635 3.82924 0.270382
3.25831 1.01767 4.22284
3.1971 1.10718 4.25798
-0.666972 -4.50097 0.0971354
-0.382597 -4.46691 0.0585786
-0.544836 -4.54384 0.236567
1.0137 3.78858 0.130137
-0.097263 -4.52487 0.381373
-0.248147 -4.50569 0.221372
-0.0470857 -4.48916 0.228512
-4.22757 1.2591 -0.13905
-4.25689 1.04465 -0.14442
-3.5162 -1.10458 -2.09846
1.22059 3.80462 0.204269
1.42911 3.83278 0.356387
1.17115 -4.46281 2.70708
0.0727424 -4.50851 0.380935
1.45686 3.76842 0.0729762
1.61274 3.78309 0.198543
1.59682 3.8148 0.35066
-2.23315 -3.57331 -1.94699
-1.42264 3.97487 1.41634
-1.64912 3.94654 1.52357
0.224588 -4.38197 0.00553167
0.313368 -4.42377 0.136505
4.44647 -0.0205656 1.84862
4.47318 0.00845228 1.74333
4.44762 0.0760555 1.80031
-0.439075 1.64921 2.9854
-4.14234 0.971594 -0.549703
2.15524 -4.24746 -0.0720361
-2.03784 -3.79353 -1.54837
-1.81082 -3.88061 -1.52322
-1.88036 -3.88485 -1.35373
1.77651 3.74818 0.110219
1.83876 3.78991 0.372872
1.97233 3.73881 0.222966
-3.93757 -2.06841 -0.362479
1.07718 1.44752 3.70566
1.173 1.48852 3.75066
4.66559 -0.439731 -2.75738
4.69064 -0.203962 -2.70701
2.42661 3.62529 0.502548
2.30473 3.6558 0.340588
2.27356 3.68978 0.56747
-1.13173 -3.35515 4.10642
-1.18175 -3.27084 4.17073
-1.2699 -3.37674 4.14176
2.44377 3.60098 0.28954
-0.389064 -1.77548 3.53935
-2.81976 2.31933 -2.45471
2.63972 3.54022 0.408228
2.49794 -3.82771 3.39628
-4.31582 -2.48158 1.73124
-4.35148 -2.31074 1.73039
1.39836 0.678202 3.11011
1.33415 0.732343 3.21266
-0.776464 -4.04405 -1.86646
-0.628271 -4.03951 -1.91668
-1.92405 -4.30969 1.96838
-2.01448 -4.28468 1.92676
1.53781 2.36995 3.88388
3.68457 2.84227 0.140588
3.621 2.8995 0.448243
3.77594 2.74601 0.315889
-1.24026 2.78767 3.4896
0.422064 1.58304 3.48705
0.337687 1.51263 3.53468
-1.09228 3.71107 3.4078
3.3304 1.98839 -3.97168
3.21839 2.18207 -3.77738
-4.111 0.11922 -0.594842
-1.32973 3.42283 3.66969
-1.38976 3.376 3.7094
-3.6473 1.1996 -1.61652
-3.63125 1.38746 -1.50511
-3.51516 1.35536 -1.83215
-3.53139 0.448949 3.54035
-3.60508 0.461374 3.47848
3.16354 2.52685 3.93688
3.09103 2.58996 3.96258
4.1499 2.29236 0.498823
3.35375 -3.97516 0.249174
3.20823 -4.08973 0.460403
2.61094 -3.22007 -3.47327
2.46969 -3.29578 -3.40727
3.50762 -3.89466 0.240863
3.40949 -3.979 0.422297
4.38586 1.91467 0.282576
4.38567 1.86323 0.431915
-1.50697 -4.02087 -1.26781
-1.65701 -3.93231 -1.52391
-1.40684 -3.99751 -1.5554
3.65437 -3.80456 0.198812
3.60098 -3.87748 0.400594
-3.99108 0.91992 3.19756
-4.04981 1.01439 3.12964
-4.04507 0.923998 3.07977
4.58768 1.43546 0.266137
4.46125 1.7256 0.326056
-2.39486 -4.19851 2.01653
-4.10824 -2.96434 1.50212
3.95553 -3.52992 0.018016
3.91487 -3.61722 0.321916
3.77876 -3.73357 0.297199
-0.933467 3.538 3.50986
-1.24641 1.01403 3.3284
-0.861759 3.30904 -1.83522
4.23165 0.382659 2.56305
3.22364 -2.87561 -3.38882
3.58345 -3.58479 3.60303
-0.605637 -3.36955 -4.56641
-0.422594 -3.37713 -4.55604
4.65446 1.12614 0.431305
4.65253 1.20755 0.29344
-2.18752 -0.394198 4.62271
4.43297 -3.03861 0.519914
4.32132 -3.19821 0.510596
4.3283 -3.16547 0.323865
4.21955 -3.2959 0.206189
4.69929 0.851727 -1.70116
-0.406628 3.12679 3.30128
-3.74299 0.543894 3.36795
4.76838 0.49897 0.355164
3.7826 -0.463943 3.72777
0.258783 0.167296 3.23071
0.15117 0.261898 3.30304
4.76437 -2.41999 0.541841
4.66929 -2.61148 0.464472
4.73361 -2.48933 0.384779
-2.07477 2.83187 4.14188
4.8292 -2.26187 0.504574
0.949234 3.22102 3.76238
0.971352 3.31042 3.74074
-2.28526 1.23978 3.98276
-2.29964 1.15385 4.01684
3.32227 -0.00281176 3.4675
2.66609 2.91756 4.01999
2.63024 2.97393 3.93441
4.92034 -0.544689 0.567695
4.93419 -0.502961 0.370652
-3.36897 -1.36514 4.05417
-1.49012 2.74327 3.72137
-1.54406 2.646 3.79535
5.0033 -1.70827 0.366639
4.4773 -2.80338 -0.778185
4.44803 -2.79204 -1.0167
4.54932 -2.6575 -0.953955
0.228438 -4.53912 2.32124
0.203429 -4.50737 2.45556
0.961383 1.35738 3.65517
2.2788 -0.933561 3.06603
2.22918 -0.978755 3.01257
-3.49939 -1.42731 3.74684
-1.9049 2.89174 -2.78176
-2.02645 2.83131 -2.87143
-2.10655 2.80091 -2.72617
-4.1412 -0.0626227 -0.306254
-0.274818 3.12969 -4.1676
-1.31497 3.79482 0.599506
-1.1431 3.79488 0.494441
-3.27752 -2.48798 3.78955
-4.21969 0.583304 -0.368916
-4.19473 0.810568 -0.424479
-3.91411 0.723482 3.20393
2.71004 -1.06174 3.53286
2.68025 -0.983923 3.48287
3.91386 -3.68871 0.670581
3.89717 -3.72212 0.855441
-3.79873 -1.36509 3.03702
-3.78389 -1.28551 3.07441
-0.743706 -3.42162 3.81058
-3.05335 -0.756029 4.41183
-4.08036 1.65235 -0.217276
0.157222 -1.12039 2.97466
0.0929992 -1.07243 3.05421
-3.10175 -0.223807 3.77853
-3.97979 -1.43679 2.31834
-4.1062 -0.948426 -0.0379695
-4.05526 -1.03737 -0.276394
-4.09334 -1.21111 -0.056995
-4.07361 -0.625832 -0.315588
-4.04166 -0.789269 -0.372952
3.16653 3.25976 1.37833
3.26653 3.18075 1.48828
3.34151 3.12976 1.34655
2.38742 -4.191 3.39284
2.29944 -4.22545 3.3629
-1.35496 -0.361528 4.29947
-1.35695 -0.276056 4.24293
0.514223 -3.54661 3.14782
-1.40892 3.28772 3.73121
-3.46518 1.52006 -1.77138
-3.43213 1.39662 -2.04112
-0.466605 -4.40416 2.89906
-0.646456 -4.39643 2.91121
3.46638 -2.18802 -4.34598
3.33656 -2.29523 -4.35247
-2.18778 -4.39593 1.04809
-2.20272 -4.37323 0.733236
-0.417021 3.53124 3.14033
2.0458 -4.54536 1.77144
4.78821 0.627025 0.15745
1.16173 -1.49606 3.31167
2.69441 -0.285272 3.42221
2.77912 -0.272496 3.45424
4.71432 -0.969359 2.1606
-2.19888 -3.67407 -1.66755
-2.10287 -3.67816 -1.86917
-1.91873 -3.80305 -1.74579
1.48801 2.65449 3.7768
1.51625 2.74406 3.76918
1.44278 2.73798 3.72017
3.25546 -2.62331 4.33173
1.32158 -1.04406 3.17127
1.34658 -0.978034 3.13942
1.25061 -0.937748 3.12326
4.7686 -0.351599 0.945419
-3.6378 -2.12992 3.27249
-2.70249 1.70094 4.38999
-1.44681 -4.16229 -0.651525
1.10427 3.09611 3.77583
1.0711 3.18153 3.78305
-3.5977 -2.9941 -0.311825
2.17216 -4.53087 2.19891
2.09609 -4.54484 2.08154
-1.86372 -4.36561 1.73417
-1.82232 -4.35927 1.88631
-3.27732 -2.71223 -1.29536
-3.2307 -2.59462 -1.4956
-2.64703 3.202 -0.15999
1.1939 -2.77675 2.68906
1.14804 -2.83183 2.73479
1.82883 -1.36105 2.97795
1.89362 -1.41004 3.03284
1.92286 -1.35138 2.98589
-3.05567 -3.5943 -0.254181
0.972191 0.92591 3.42535
1.09134 0.953833 3.45402
-3.34684 -3.44408 2.95796
-3.34047 -3.3827 3.00757
-3.42048 -3.40422 2.94863
4.63861 -0.152204 1.19954
-3.72483 0.083461 2.37314
-3.71463 0.122469 2.47047
-3.76933 0.13565 2.40468
-3.33592 -2.85807 3.31905
-3.03869 -3.5404 -0.409985
-2.85004 -3.73692 -0.355251
1.82837 -4.29606 -0.0487281
2.02281 -4.24136 -0.149643
1.9588 -4.32933 0.105739
4.16648 -1.36077 -3.37528
4.15264 -1.23947 -3.4728
-1.73075 3.53893 -0.085591
-1.54923 3.58254 -0.0489837
-0.199174 0.909541 3.58301
-0.13189 0.858894 3.58741
-0.143558 0.962683 3.56728
-2.91383 -3.78207 -0.14464
-2.68078 -3.89316 -0.285597
-1.37229 3.62214 -0.00535417
-1.33717 -1.92104 4.56251
-1.36992 -1.98228 4.59666
-1.28926 -2.00422 4.52803
3.80728 -0.54684 3.78641
3.05187 -4.29471 2.69382
-1.00837 3.63058 -0.183009
-1.16218 3.63027 -0.0787436
-0.900179 3.70431 0.0560375
1.00198 0.491223 3.12724
1.04416 0.431678 3.056
-3.65916 -0.0991588 2.26561
0.170561 1.7597 3.32572
-1.89179 -4.28416 -0.176658
-3.81298 -0.984805 2.90092
-0.338124 2.21403 2.81445
4.48307 -2.17616 2.86177
-3.32139 0.373604 -3.26821
-3.36333 0.403995 -3.11021
-3.30033 0.551988 -3.28704
-3.4744 0.635184 3.78393
-3.4587 0.535468 3.71095
-0.971623 -3.42365 3.97663
-1.06751 -3.49697 4.01428
3.53374 1.87325 -3.41147
3.64553 1.68123 -3.42056
0.136352 3.75976 0.0263664
0.0400928 3.72067 -0.10856
0.178877 3.71087 -0.156833
-0.925169 -4.42074 -0.109919
2.22298 3.04965 -3.44853
2.35639 2.97325 -3.49172
4.54455 1.25277 -1.98853
-1.95416 -3.47645 -2.7805
-0.300103 -4.39772 -0.0594801
-0.386961 -4.3339 -0.180189
-0.546851 -4.4103 -0.0784093
0.843798 3.77085 0.0380226
-1.14855 2.30402 3.64112
-0.0271861 -4.36395 -0.0698579
1.36898 0.96199 3.49464
0.189776 -4.28154 -0.205643
0.165896 -4.20944 -0.373505
1.29973 3.74753 -0.0192887
1.60285 3.75242 0.0490856
-0.0833334 3.95274 2.77713
-0.170034 4.03322 2.69967
-0.20345 3.94293 2.8076
0.339964 -4.30707 -0.137681
0.572709 -2.27727 2.45962
0.557405 -2.15955 2.57122
-3.66061 -3.1221 2.95225
5.0875 -0.995871 -0.469699
5.06062 -0.700414 -0.481657
5.06775 -0.760628 -0.234814
1.20113 -2.29289 3.0451
2.90594 3.36675 2.14421
1.48831 -1.66998 3.26307
1.55887 -1.67036 3.23003
2.44434 3.59157 0.124984
1.49775 -4.36467 0.0765868
1.22608 -4.36746 0.0436567
4.07522 -2.65583 3.58088
0.810054 -3.61984 3.01049
0.826149 -3.54964 3.02754
0.540288 -2.70294 2.77421
0.448887 -2.61196 2.77835
0.652586 -3.95582 2.8588
-3.31982 -1.72759 4.08212
0.531122 -0.206401 2.80061
0.638855 -1.86443 2.98541
0.301491 -3.35861 -4.48977
0.478528 -3.39404 -4.30434
0.306712 -3.43748 -4.1745
-3.47492 2.51512 -0.392131
3.21188 3.22545 0.305155
3.33709 3.1253 0.058549
3.1646 3.24506 0.0829453
-4.1247 1.28602 3.06176
-4.09443 1.39114 3.13663
4.8219 -1.39243 -2.06799
4.74963 -1.59812 -2.10496
2.58384 0.627205 3.53187
2.57966 0.73377 3.56179
1.53678 -3.32826 -4.17721
1.75363 -3.2918 -4.1522
1.71607 -3.33913 -3.9896
3.86238 0.123036 3.08049
3.77706 0.0934172 3.17887
2.25246 -0.866543 3.10317
-3.92758 -1.21227 2.56271
-3.90224 -1.0874 2.61588
-3.92924 -1.12053 2.51343
0.675512 -2.30982 2.46021
0.668386 -2.2003 2.54651
-3.9138 -2.73774 0.226616
-3.7876 0.347473 2.92514
-3.72747 -2.52985 2.94714
3.90687 -2.654 3.99746
3.84191 -2.70886 4.06089
-1.46962 3.905 3.24887
-1.54883 3.94018 3.16813
-1.55052 3.90265 3.26587
2.20817 3.28336 3.56266
2.23078 3.32344 3.42128
-3.96473 -0.165361 1.75364
-3.89986 -0.228798 1.84699
4.25627 2.13759 0.392262
4.3135 2.05646 0.177998
1.92315 0.75217 3.29992
1.90662 0.691151 3.23737
-0.858111 -0.776801 3.98352
-3.5722 -0.319898 -2.2876
-3.58823 -0.519892 -2.11786
3.72754 -3.70677 -0.0317398
-3.35407 -0.97815 4.04977
1.15262 -3.77915 -2.57511
1.39377 -3.75366 -2.5716
4.43412 1.84361 -0.00347865
3.83545 -3.61263 -0.0841204
-2.93168 -3.89576 2.54918
-2.93958 -3.83221 2.61894
3.98301 0.0763595 2.8332
3.82562 -1.64202 4.25988
0.330094 2.21767 3.21505
4.64432 1.34928 -0.0173323
3.02405 1.73397 4.45297
4.39637 -3.04052 0.144002
-3.87211 -0.571114 2.09136
-3.84165 -0.494305 2.08889
4.87455 0.150201 -0.0482801
4.82536 0.215971 0.14533
4.84653 -0.0487308 0.194337
4.02083 -2.95851 3.41951
1.64553 -1.36996 3.06015
1.6219 -1.26957 3.05294
2.62038 0.459851 3.58222
2.69244 0.43923 3.65485
4.68554 -2.57347 0.258228
4.63218 -2.6567 0.099017
0.412824 -4.62062 0.975368
-2.71887 2.81588 -1.18617
-2.67421 2.75584 -1.41712
-2.91963 2.62241 -1.29563
-0.470112 3.26879 3.34189
2.29193 2.78246 4.31345
-2.74698 -3.73718 -0.54981
-4.15635 0.334798 1.98001
-4.12834 0.351826 2.09883
4.89014 -0.255937 0.198684
-3.27145 -3.44198 2.99098
2.25937 -4.45494 2.75773
2.2271 -4.44722 2.88368
4.91744 -2.06026 -0.134844
4.97607 -1.88683 0.0351222
-1.08052 -4.62274 1.15868
4.6605 -0.657683 2.08452
4.62945 -0.537204 2.0053
3.43965 2.2969 3.74889
3.44149 2.18909 3.83997
5.05312 -1.47934 0.197466
5.0675 -1.06629 0.304877
5.06967 -1.27598 0.256176
5.08462 -1.0687 0.0509245
2.87367 -0.485198 3.74618
3.4372 -4.14741 2.21032
3.2358 -4.25161 2.10903
-1.93456 -4.41846 0.418357
-1.97984 -4.36528 0.19524
-1.74116 -4.4684 0.359528
1.0263 -3.0425 3.05697
1.10705 -3.06327 3.00225
-4.11425 0.745111 -0.654563
-4.09553 0.49827 -0.745313
0.127618 -1.97867 2.689
0.226932 -1.96485 2.6154
4.48974 1.54441 -1.53411
4.60105 1.28053 -1.51666
0.973281 3.40463 3.68042
-3.99797 -1.13254 2.00415
-1.81192 -3.78735 -1.99073
1.46836 -3.39947 2.88632
-4.34856 1.39983 2.05694
2.48272 3.48883 2.59756
2.54187 3.50736 2.38441
-3.8622 2.0426 -0.303334
-3.82417 1.97949 -0.47348
0.441334 2.85508 3.60696
3.53479 0.512661 3.96104
-2.24425 0.182598 4.13344
-4.05235 -0.0527461 -0.707833
-4.1192 -0.0615104 -0.46788
-3.33616 -2.6777 3.46924
-1.09027 3.87025 3.18425
-1.20861 3.85006 3.252
1.48415 -1.02009 3.08787
1.54961 -0.98443 3.0271
4.03632 -1.76137 -3.47921
3.99792 -1.74698 -3.65069
-3.87947 -1.96093 -0.561616
-4.00397 -1.54504 -0.342355
-3.70471 -3.57353 2.28616
4.21017 0.485638 2.71667
4.21625 0.560037 2.74195
4.19831 0.534965 2.78344
-3.92642 -1.06468 -0.751569
-3.92948 -1.21751 -0.695201
-4.00449 -1.01674 -0.514917
-4.00914 -0.853691 -0.518629
-3.48783 -0.328609 -2.63522
-3.50894 -0.53396 -2.49463
-3.52452 -0.205397 -2.50887
-3.64794 0.279032 2.9807
-3.66674 0.316354 3.06545
-3.73481 0.334736 2.99909
-2.44682 3.7398 2.66142
-3.81582 -2.4481 -0.417901
-3.77427 -2.38459 -0.566732
-3.71515 -2.54785 -0.610657
-2.57491 -3.30589 3.80712
1.10475 -2.2235 3.01812
-2.7789 3.03324 -0.487265
-2.9946 2.84977 -0.611152
-2.92416 2.98378 -0.368563
3.01811 -3.32686 -2.22809
3.32012 -2.29026 4.37475
3.35677 -2.20673 4.38978
1.7091 -4.36426 0.138081
1.67733 -4.32867 -0.00607979
4.61745 1.4549 -0.276311
-0.259833 0.993089 3.54446
1.64366 -4.58324 1.35406
1.80099 -4.55961 1.22598
0.688904 -0.354681 2.85159
-3.17371 -1.82708 -2.73783
0.292489 -4.18165 2.99118
-3.13753 -3.35492 -0.658937
-2.98957 -3.50695 -0.601056
-3.17191 -3.38604 -0.510623
-4.32962 0.618272 1.84216
-3.26585 -3.22102 -0.657842
1.63986 -2.49803 3.30935
1.6249 -2.43331 3.34511
-3.84912 -0.260352 1.93076
-2.86109 -3.60543 -0.652392
4.27156 0.938893 2.46154
0.326916 1.63053 3.45318
-3.40227 -0.362913 3.44116
-1.24355 3.59591 -0.204937
-1.42727 3.57497 -0.178305
-1.30065 -1.73318 4.55095
-1.36176 -1.71621 4.61225
0.573702 -3.61797 -3.36128
-0.82596 3.63318 -0.258728
2.81539 0.264039 3.63857
-0.230909 -1.50427 3.35111
-0.19123 -1.45041 3.31017
2.98893 3.18541 2.85802
3.67664 -1.3147 4.21783
3.59451 2.07205 -2.77621
3.7136 1.92692 -2.82669
-3.85044 -0.648346 2.26936
-3.81561 -0.562095 2.24872
-3.87223 -0.631047 2.16566
-3.79242 0.114509 2.32212
-0.170087 -2.86269 3.35218
-0.143216 -2.93795 3.38099
-1.53992 0.945445 3.43701
-1.54666 0.853116 3.51391
-1.01692 1.27646 3.29977
0.43494 3.72741 -0.100363
0.305738 0.0464361 3.12124
-4.19851 1.70236 2.75244
1.20771 3.06599 -4.46645
1.21561 3.05127 -4.51272
-0.647921 -4.21961 -0.556668
-0.473575 -4.23126 -0.498015
0.854543 3.71277 -0.185122
1.15043 3.6893 -0.260497
1.00109 3.6768 -0.324626
0.958713 3.74233 -0.051736
-4.16 -0.961092 1.5125
1.50926 3.67546 -0.280148
1.21167 3.64917 -0.409642
2.9012 -0.965412 3.83393
3.49862 -1.09005 4.17731
-3.57633 -0.52285 3.2169
-3.24373 -3.32468 3.09517
1.0252 -4.14058 -0.477205
-3.13063 0.276079 -4.06288
-3.12619 0.427689 -4.05
-3.08612 0.404649 -4.2383
-3.09297 0.845941 -3.99914
-2.79649 -3.84248 -0.212726
1.78613 -4.34354 3.02575
1.74228 -4.2756 3.10226
4.96259 -1.88925 -0.493349
4.88306 -2.09939 -0.479203
4.89071 -2.05815 -0.642839
-1.28548 0.0747453 4.13424
-1.26989 0.214954 4.10406
1.1542 0.24864 2.61984
1.1863 0.124689 2.57379
-4.21629 -1.45785 1.83469
1.97817 -3.89778 3.0289
-0.524104 2.35453 3.072
-0.505606 2.49928 3.10362
-1.08373 1.64613 3.60127
3.92882 -0.0302542 2.88445
-3.75987 0.848832 -1.53876
-3.80405 0.54933 -1.49621
-3.84366 0.701654 -1.38555
0.938903 0.147678 2.82017
-3.67491 0.352393 3.15513
-3.59819 0.300387 3.11654
4.02091 2.47422 0.227212
3.4467 3.04285 -0.0909654
4.15978 1.12448 2.82166
3.52731 2.97003 -0.250947
3.59185 2.92461 -0.0365782
3.66637 2.85679 -0.194191
0.739657 -2.36473 2.4752
0.873604 -2.37818 2.55694
2.33935 0.916769 3.66888
3.88601 2.62151 -0.253553
3.8804 2.63239 -0.0947409
-0.585283 3.47614 3.33375
-0.586972 3.40794 3.38139
3.78791 2.71485 -0.407652
3.75859 2.76248 -0.0861617
3.0283 -3.98515 -0.304057
3.39956 -3.98256 3.21652
3.4672 -3.94388 3.19881
4.16901 2.2872 -0.0761797
2.6589 3.51398 0.155635
2.60266 3.52542 -0.0618397
-0.423825 2.50613 3.10157
3.59395 -2.68075 -2.95692
3.59112 -2.77755 -2.72445
4.28709 2.13058 -0.151
4.19224 2.26338 -0.303854
3.57352 -3.78641 -0.114866
3.62622 -3.7216 -0.246201
3.4922 -3.7813 -0.302741
3.69957 -3.64084 -0.374586
4.0137 -2.306 4.0193
4.691 -0.633061 1.94497
4.43503 1.85213 -0.152549
4.5477 1.62093 -0.369223
4.44539 1.83999 -0.386876
2.2784 -4.42558 2.96394
1.85721 3.36221 -1.37549
2.10083 3.33041 -1.45771
4.69386 1.19433 0.0271106
4.73802 1.03299 -0.132638
4.70427 1.18076 -0.289484
3.76321 -2.00739 -3.96359
-0.010297 -3.48414 -4.08051
0.0808531 -3.53433 -3.8454
4.21611 -3.19302 -0.429784
4.19085 -3.25564 -0.232501
0.829614 -3.23067 3.06605
4.2892 -3.18131 -0.0226755
4.31779 -3.11339 -0.228482
0.270385 1.67269 3.42528
4.92488 0.0728993 -0.272261
4.91108 -0.12406 -0.0326935
4.82812 0.664937 -0.308582
4.80304 0.708711 -0.0732434
4.66431 -2.58876 -0.0406569
4.53845 -2.80499 -0.0591943
4.63819 -2.62203 -0.189611
-3.70613 2.91598 2.40482
-1.51516 1.09965 3.3439
-1.55728 1.15682 3.38957
4.74195 -2.43145 -0.148338
-2.50352 2.69753 -1.98459
-2.48726 -4.04297 2.24865
4.94218 -0.429765 0.177062
4.99147 -0.622452 0.215231
4.99792 -0.489677 -0.0730179
5.07864 -0.899307 -0.0885848
5.04198 -0.640497 -0.130738
-1.66161 -1.52652 4.85803
-1.71756 -1.45269 4.88674
-1.74343 -1.54208 4.88832
-0.660001 -3.85241 -2.70745
-0.679947 -3.8154 -2.86466
5.00066 -1.80626 -0.162742
4.83987 -2.23806 0.115858
-4.21564 -0.921687 0.910734
-1.51388 -3.81771 -2.29076
-3.0953 0.12231 3.33654
-3.09587 0.209746 3.37697
-0.525019 -2.65474 3.66246
-0.513487 -2.76528 3.6396
3.12861 2.61552 3.87124
3.03248 2.66638 3.9415
5.08879 -1.13368 -0.232302
3.76331 -3.30356 3.60847
-3.07072 1.44787 4.37629
3.02116 -3.56353 3.90659
-4.05495 0.809048 -0.833288
-4.06244 0.645567 -0.831432
-4.00692 0.659167 -0.990226
-4.05191 0.511885 -0.887364
-1.33385 1.29996 3.38627
2.61045 -3.54698 -2.10862
2.41913 -3.57726 -2.25191
-2.94424 -2.57733 -2.34793
-2.85867 -2.6065 -2.5286
-2.84905 -2.74531 -2.29043
5.08954 -1.23489 -0.0810437
-3.94625 1.56209 -0.673825
-3.81206 1.67499 -0.851432
-3.85532 1.72058 -0.710856
-3.77387 1.84956 -0.738252
-3.96999 -0.680102 -0.710163
-3.93845 -0.506787 -0.887199
-4.00501 -0.177972 -0.821733
3.1345 0.00133463 3.48715
-2.33292 -2.15903 -4.67296
-2.2176 -2.30788 -4.66532
-3.63622 2.00026 -0.849844
-3.71631 2.00137 -0.675734
-3.551 2.22116 -0.716951
5.04087 -1.39222 0.540293
-2.35046 -3.56537 -1.70474
4.47875 -0.0498185 1.75921
-2.89149 -2.12984 -3.21226
-2.80761 -2.32093 -3.13439
-1.18394 3.34407 -1.11502
-1.30606 3.35742 -0.95433
-1.14783 3.40825 -0.895477
-3.56302 -0.162957 -2.35586
-3.61342 -0.0717176 -2.15541
-3.54876 0.0119439 -2.44145
-3.89515 -0.734115 -0.947794
-3.8996 -0.965137 -0.868273
-3.66641 -0.0377769 -1.93965
0.712831 -2.13418 2.67429
4.02748 -3.57317 0.593078
4.11995 -3.44503 0.409617
2.22176 -0.754118 3.18432
2.29413 -0.720852 3.26535
0.319551 -3.33212 3.32681
-3.15233 -0.302759 -3.95975
-2.81914 3.12884 -0.0906149
-3.62327 -2.72881 -0.636607
-3.51329 -2.71534 -0.883769
-3.50404 -2.86988 -0.745844
-4.06132 2.05937 2.97773
-1.84482 -2.13255 4.80849
-0.242177 3.32752 -2.54876
1.22462 3.40921 -1.15638
1.24285 3.3459 -1.38146
0.925759 3.39016 -1.23159
1.83458 -4.42872 2.87615
-3.08647 0.136027 -4.29748
-2.69186 3.46683 1.12052
-1.46787 -3.37507 -3.83604
-3.27658 -3.07198 -0.868784
-3.15087 -3.25481 -0.795646
-0.733133 0.348543 3.93156
-2.2035 3.25377 -0.575023
-2.09981 3.24192 -0.712155
-1.53903 3.38734 -0.753489
-1.76109 3.34041 -0.748526
-1.52902 3.44167 -0.57781
-2.38223 -3.7245 -0.963278
-2.74052 -3.61927 -0.825702
3.2816 -3.8772 -0.316452
3.40079 -3.76896 -0.526542
-2.18735 -4.0421 -0.548063
-2.19123 -3.96927 -0.678622
-0.866124 -2.64478 4.1508
2.66695 -2.91597 -4.38548
2.70855 -2.89076 -4.38332
1.99728 3.78509 0.577028
2.09822 3.72032 0.302238
-4.38121 1.30612 1.15981
-0.783136 3.50074 -0.767473
-0.512402 3.59316 -0.555703
-3.89869 0.242884 -1.27535
-3.96995 0.250019 -1.07968
-3.92996 0.35862 -1.19609
-0.295746 3.65938 2.98385
3.68823 -1.88411 4.34163
-1.68005 -3.37101 -3.52697
-1.60544 -4.08843 -0.776383
1.78529 -3.62548 2.8397
-0.265988 3.62127 -0.488021
2.97094 0.583551 4.05582
-0.0259737 3.41379 -1.97181
-0.118397 3.38877 -2.09289
0.728156 3.493 -0.905591
0.710144 3.56396 -0.712222
4.00665 -2.43341 3.96634
-2.42616 0.126321 4.03092
3.17583 -2.55625 -4.27451
3.05677 -2.75841 -4.12088
3.05176 -2.63581 -4.36593
3.0754 -2.61217 -4.36477
0.179527 3.65974 -0.375724
0.316953 3.63123 -0.470928
0.152852 3.59328 -0.606932
-1.453 3.94661 3.16849
-0.853894 -4.23693 -0.518303
-0.889681 -4.19252 -0.662288
0.649521 -0.543207 2.96615
-4.35081 0.847229 0.290844
-4.176 -0.143814 1.2782
-1.35498 -4.2599 3.07147
0.751611 3.65235 -0.421089
2.38894 3.25515 3.45914
2.77561 -4.36559 2.7485
-0.401501 0.224403 3.64949
1.60114 3.59665 -0.561763
1.34775 3.59649 -0.594989
3.53349 1.7028 -3.83711
3.58071 1.70015 -3.65717
0.0936134 -3.89375 -2.42207
0.0799727 -3.80885 -2.75614
0.234225 -3.83161 -2.62409
1.72984 3.6436 -0.36558
1.85301 3.57441 -0.620868
-3.93099 -1.58881 2.55471
1.18246 0.762139 3.29074
1.25842 0.744359 3.25423
-3.05689 -1.24908 -3.79747
-3.10812 -1.22514 -3.64164
-3.00822 -0.688268 4.42684
-1.45364 2.65894 3.7077
-1.38207 2.74525 3.61583
1.55441 -4.57826 2.14553
0.873133 -4.42919 2.65649
1.79659 -4.11752 -0.502781
1.59378 -4.11337 -0.507072
-3.20018 -2.45246 3.94348
-0.653409 3.40469 3.4335
-0.718096 3.388 3.48491
2.71738 3.41545 -0.540544
3.58663 0.400716 3.826
-2.95649 -2.65288 -2.18569
-3.03833 -2.40316 -2.36152
3.33608 3.05996 -0.637428
2.52445 -4.08431 -0.371362
2.54887 -4.03097 -0.516358
2.69034 -4.02592 -0.459757
1.21477 2.84537 3.61754
1.09438 2.90431 3.6216
-2.90679 3.53342 2.75003
3.89077 2.59364 -0.654645
3.99928 2.49533 -0.455943
-0.969526 -3.88943 -2.46257
-3.00581 -4.00199 2.33599
2.97628 -3.87253 -0.686139
3.0451 -3.91191 -0.513312
2.82843 -3.94053 -0.599899
-3.37848 -0.65229 -2.97116
-3.34367 -0.648878 -3.11926
-3.33661 -0.894417 -3.03412
4.26683 2.13832 -0.517375
3.6122 -3.65339 -0.519565
4.29116 2.11286 -0.332384
4.36796 1.9846 -0.420793
4.4092 1.9011 -0.595288
4.36266 -0.0594359 2.13189
4.53362 1.6511 -0.550105
3.89567 -3.47281 -0.488489
2.18944 -3.44117 -3.2232
2.3612 -3.40024 -3.14117
1.00532 -2.24148 2.82604
0.821277 -1.91708 3.08233
0.731986 -1.89658 3.04035
-3.24634 -3.89351 2.39678
3.38689 -2.6764 4.35008
4.37854 -2.96577 -0.625562
4.33318 -3.05883 -0.450735
4.23634 -3.10377 -0.721383
-3.64455 -3.36274 2.78325
-1.91102 -4.39217 1.51605
-1.93808 -4.37173 1.63158
-2.03117 -4.39622 1.43954
-1.62783 -4.45355 1.73429
-1.56796 -4.48359 1.65226
-1.70344 -3.89743 -1.68217
4.39878 0.934826 -2.78853
4.50482 0.880481 -2.62778
4.44566 0.792895 -2.79748
-3.71233 -0.0265798 2.23842
1.42305 -2.36992 3.195
4.4822 -2.83058 -0.577058
4.75718 -2.38777 -0.333856
4.69645 -2.47356 -0.568184
4.8237 -2.24057 -0.471152
3.45063 0.199305 3.60811
3.5091 0.154747 3.51457
4.84958 -2.19619 -0.306364
4.76745 -2.32892 -0.634491
-2.28194 -3.23319 -2.73544
-4.12343 -0.275271 -0.25027
4.97153 -0.130785 -0.460941
4.98535 -1.84967 -0.30636
4.93592 -2.00191 -0.278994
4.32634 -3.00392 2.39765
5.03258 -1.62217 -0.270723
5.02169 -1.65504 -0.448197
3.91103 -1.93933 -3.65587
3.85906 -1.92292 -3.84291
3.9452 -1.73613 -3.83879
2.75741 0.484673 3.75406
-3.45603 -2.20288 3.64234
0.305324 3.15196 -4.2676
0.156667 3.13105 -4.38571
0.943991 -0.906007 3.10944
-1.64259 1.09818 3.4945
-1.60226 1.22046 3.44892
-2.93485 -1.24052 -4.24498
-2.86645 -1.39781 -4.31579
-3.97049 0.483593 -1.09657
-3.99975 0.857808 -0.979556
-3.93779 0.652518 -1.16437
-3.89864 0.844353 -1.2267
0.14547 -3.46055 -4.12984
-0.0284344 -3.40444 -4.3894
-3.85899 1.08938 -1.21255
-3.93759 0.987951 -1.07692
-3.7694 1.27422 -1.29566
-3.61014 -2.71677 3.04301
-3.53003 -2.69772 3.11137
4.07568 -0.119047 -3.50893
4.05853 -0.260413 -3.59677
-0.493023 2.02892 2.83108
-3.7361 1.59936 -1.09748
-3.80253 1.4675 -1.0785
-3.62394 1.88044 -1.01552
4.44583 -2.50002 -1.6539
4.53443 -2.55169 -1.33777
0.743613 2.33065 3.26501
-3.50179 2.18136 -0.877347
-1.89838 2.17758 4.16161
-1.83063 2.17812 4.11779
-3.86523 -1.15667 -0.923926
-3.83801 -1.03469 -1.05888
-3.81306 -1.1796 -1.07984
-3.52637 -0.236 2.65275
-3.52756 -0.172672 2.57329
-3.84018 -0.64792 -1.15736
-3.88248 -0.558955 -1.04213
3.99505 0.429486 -3.44246
-2.25431 -0.176369 4.50265
-2.97693 -0.223598 3.99109
-2.9343 -0.145006 3.90906
-1.60372 -0.824429 4.79508
-3.25138 2.4694 -0.962882
-3.68707 -1.62288 -1.24854
-3.68657 -1.78974 -1.1449
-3.77621 -1.65574 -0.977326
-3.60432 -1.96659 -1.20777
-3.75546 -1.30167 -1.2092
-3.73302 -1.45721 -1.20609
-3.80532 -1.36537 -1.02713
-2.46771 -2.57765 -3.5582
-2.44921 -2.52446 -3.70798
-2.36476 -2.6777 -3.62407
2.78342 -3.94323 3.60025
1.6182 0.179316 3.19822
1.53181 0.170705 3.15233
-1.09621 -3.62921 -3.41916
-0.856779 -3.66761 -3.40311
-3.95125 0.0665033 1.9559
1.36121 -2.4907 3.02343
-3.4115 -2.81765 -0.966483
-3.2628 -2.86466 -1.1605
0.982609 -2.53048 2.64732
0.90407 -2.45759 2.60041
0.23973 2.41502 3.31726
0.27794 2.30484 3.26438
4.92316 -1.33516 1.36729
4.89918 -1.43506 1.49813
-2.25463 3.1773 -0.756125
-2.06824 3.1832 -0.931286
-2.3094 3.10342 -0.938148
-1.24518 3.10535 -2.99381
-1.19498 3.0851 -3.20409
-1.35658 3.04146 -3.15904
-3.06026 3.38808 3.35835
-3.00149 -3.15981 -1.1596
-3.1282 -3.09153 -1.05983
-2.98075 -3.06812 -1.31788
1.54263 0.566611 3.0162
1.47695 0.501327 2.92595
3.25907 -4.1654 2.85434
3.19723 -4.18386 2.91512
-3.04953 -3.24604 -0.969196
-2.8962 -3.34441 -1.054
-3.04528 -3.37175 -0.793828
-3.29553 -0.794167 -3.24757
1.73976 -1.3759 2.98688
1.75092 -1.2871 2.94397
-3.30284 -2.52797 3.70564
-3.26323 -2.61518 3.69877
-2.75392 -3.46059 -1.0528
-2.50198 -3.58025 -1.1032
-1.6485 3.01 -2.66848
2.25781 0.480394 3.35024
2.31882 0.451226 3.39445
-2.72973 -3.2452 -1.42627
-2.84791 -3.25672 -1.24059
0.726907 2.6013 3.34772
1.98651 2.96698 -4.46865
2.15298 2.90306 -4.45878
-2.70275 3.62159 2.91408
-1.78535 -3.46381 4.03534
-1.91899 -3.5069 3.95564
-2.86409 -2.85843 -2.03652
-3.00854 -2.73215 -1.91018
3.64781 -0.17602 3.39774
-3.43192 -0.319551 -2.87394
-0.95773 1.51133 3.50119
-1.06229 1.42504 3.46291
4.58366 -0.15826 1.50376
-3.78638 -0.63878 2.51065
-3.80461 -0.614492 2.37897
4.61741 -0.359141 1.71263
0.638887 -3.48798 -3.85779
0.15531 3.47833 -1.01835
-0.0390404 3.54381 -0.77215
0.206973 3.54059 -0.784582
-1.76496 3.0514 3.95468
-1.81878 3.15217 3.95876
-1.85119 3.02784 3.99601
3.52356 1.30762 -4.3694
3.55043 1.31466 -4.27901
-2.49821 0.322165 3.81765
3.25519 3.19447 1.17743
3.06517 3.32857 1.23478
0.783711 -3.53959 -3.6013
0.763711 -3.58128 -3.45439
0.584038 -3.52739 -3.71146
4.72206 0.245631 -2.47016
4.73483 -0.0109317 -2.55175
-1.43876 -4.54441 0.379809
2.74003 -4.27574 3.14379
-1.55332 -3.95186 3.66658
-1.59577 -4.03168 3.54609
2.7085 -2.9387 3.88542
1.35624 -2.43416 3.08252
1.35077 -2.36015 3.13899
0.991951 3.48272 -0.93583
0.849857 -3.49894 -3.74323
-1.26043 -4.59336 0.740713
-1.51215 -4.54743 0.72495
1.71033 3.5444 -0.755246
1.61155 3.51915 -0.875261
1.44789 3.55337 -0.746445
1.43287 -4.06449 -0.62347
1.60071 -4.02444 -0.730264
-3.51362 3.10222 1.99632
-3.3232 3.24105 1.99544
-3.95994 -1.12861 2.3303
1.85821 3.47891 -0.982475
1.99615 3.52308 -0.761629
3.87765 -2.16972 4.22359
0.589792 -4.14382 -1.11573
0.779375 -4.11397 -1.20676
0.734243 -4.15187 -0.886956
3.76477 -3.09012 3.83281
-4.24527 -0.0784946 0.735664
1.60375 3.34107 3.722
1.63991 3.39423 3.65416
2.24952 3.46538 -0.850466
1.1241 -2.55882 2.68578
2.73771 3.38085 -0.702343
-3.58606 0.499776 3.54751
-2.67412 -3.12453 -1.94861
2.32754 3.55974 2.51441
4.41356 -1.57881 3.19662
4.43523 -1.66429 3.12457
2.00039 2.86068 4.11422
-4.13531 -2.50871 2.60571
-4.18698 -2.48718 2.52502
-4.00467 2.37535 0.97415
3.54364 0.885956 4.06038
3.67541 2.78906 -0.715888
2.7562 -3.90047 -0.759345
-1.9746 0.901217 3.84552
1.48137 -0.811547 2.93043
4.817 -2.28103 -0.162361
4.22072 2.1921 -0.677411
4.1869 2.22783 -0.840371
0.25769 -0.640033 2.81738
0.327597 -0.678065 2.83482
1.43039 -2.56498 3.03346
1.4191 -2.49843 3.08239
2.36656 2.42395 4.46357
2.36718 2.5131 4.45003
3.17691 -3.71285 -0.944411
3.23685 -3.63934 -1.09692
3.29531 -3.71083 -0.831064
3.1074 -0.128654 3.47491
4.35124 1.98093 -0.827094
4.4827 1.74709 -0.816447
-4.16827 -2.11578 0.50551
-4.17498 -2.30903 0.680994
3.29318 -1.21709 4.19836
3.39798 -1.21115 4.22504
3.64919 -3.49658 -0.977332
3.67297 -3.54991 -0.75742
3.47906 -3.5843 -0.960835
3.79893 -3.51721 -0.589668
3.87195 -3.40849 -0.780395
4.56697 1.56057 -0.715674
4.6182 1.45582 -0.535609
3.13825 -0.605773 3.95878
-3.15683 1.9556 -2.10294
-3.22033 1.9119 -1.96628
-1.01969 -3.60192 -3.55927
2.58763 1.74816 4.50087
2.67389 1.78244 4.52763
4.82293 0.662516 -0.87202
4.80172 0.790029 -0.659248
-0.762207 -0.341885 3.8907
4.68236 1.23087 -0.842244
4.63571 1.36979 -0.894874
4.64538 1.34642 -0.685682
3.84758 -0.198995 3.20811
3.89582 -0.208142 3.14778
4.31636 -2.98356 -0.873572
4.95648 -0.00527614 -0.537803
4.94715 0.104584 -0.67018
4.93095 0.193038 -0.537331
-3.60599 -0.275494 2.43831
3.30085 2.82367 3.21621
3.27016 -1.78483 4.34319
4.56774 -2.69644 -0.543687
4.58692 -2.63622 -0.73372
0.797829 3.95894 2.72745
3.87398 0.846713 3.71951
3.84634 0.725615 3.74716
5.06574 -0.865389 -0.692169
5.07562 -1.03432 -0.727947
5.06086 -1.13217 -0.90554
5.05021 -0.956266 -0.969567
-0.498692 -1.72797 3.68501
-3.71729 -0.997516 3.20529
0.421358 -1.89577 2.78472
4.12039 -3.53601 1.46855
4.68276 0.964835 0.549384
4.6363 1.06855 0.663433
5.05612 -1.34792 -0.697975
5.08066 -1.14658 -0.593962
-2.74285 -0.0152099 3.91102
-1.57519 2.84915 -3.93456
-3.88884 0.538122 -1.29798
1.76497 -2.61257 3.34433
4.28059 1.40236 1.94114
-3.6436 1.68032 -1.21357
-3.7039 1.48103 -1.27616
2.26606 -2.24878 3.76451
-3.59387 1.58527 -1.40667
-3.54917 1.77716 -1.29307
0.573895 -4.62796 1.82643
-3.71725 -0.602756 -1.54772
-3.76738 -0.685817 -1.35284
-3.71064 -0.785855 -1.50562
4.95689 -0.85679 1.06896
4.9777 -0.974406 1.04053
-3.81577 -0.226736 -1.37746
-3.73646 -0.443088 -1.54841
1.6295 -4.00782 -0.94921
1.83079 -3.95799 -0.869
-3.43561 1.87165 -1.43698
2.22642 -3.90613 3.27085
2.15684 -3.87966 3.11339
2.1415 -3.9183 3.22611
-3.32263 2.06719 -1.44381
-0.533517 4.07544 2.39403
-0.547209 4.09224 2.25516
-0.91505 3.03066 -4.2049
3.15347 -4.19008 2.98069
-1.81661 0.232448 4.21427
-0.223264 -3.43131 -4.33869
-2.31265 -4.20796 1.99882
-2.2501 -3.69332 -1.17181
-2.1313 -3.76711 -1.32934
-2.0355 -3.8806 -0.94508
-3.31659 -0.765783 4.03594
-4.14289 -2.52628 0.787466
-4.08293 -2.59055 0.608446
-3.41219 -1.94603 -1.63009
-0.988914 -3.31505 -4.55621
-0.93052 -3.31676 -4.58511
-0.693525 3.42404 -1.14495
-0.758788 3.39475 -1.32678
-0.956177 3.38951 -1.11167
-0.430307 -1.73112 3.59532
-3.33097 -2.43398 -1.44594
4.30272 -0.950876 3.32585
-3.35817 -2.93341 3.24551
0.027676 -2.12766 2.79338
3.33259 -1.10973 4.17999
3.34812 -1.01895 4.15586
2.73277 1.72341 4.51807
2.78379 -3.2832 -2.82562
2.69566 -3.28958 -2.94401
-1.9099 3.19721 -1.06152
-1.66192 3.22108 -1.21328
0.302107 -4.61685 1.91599
3.26915 -2.17325 4.36471
4.10846 -1.59626 3.96541
4.03403 -1.53551 4.06205
2.57061 -4.26504 3.24406
2.57953 -4.22146 3.30697
2.50396 -4.23511 3.31715
3.33217 1.06422 4.21181
0.990808 2.94208 3.65041
1.021 3.06876 3.76121
0.941475 2.98754 3.70565
-2.75827 -1.67416 -4.27805
-2.32961 -3.67633 3.53433
-0.179582 -3.49334 -4.08888
-1.70889 -3.96619 -1.18974
-1.72332 -3.94935 -1.34246
0.67772 -4.63191 1.69785
-0.772258 3.43709 -0.969951
-0.592811 3.46047 -0.940732
4.09844 -0.0275255 2.63689
-1.16788 2.19626 3.70792
3.84058 -3.83219 2.04159
0.540082 3.44943 3.45849
0.466362 3.47752 3.37646
-3.93229 -3.07904 0.961625
-3.89371 -3.04912 0.740076
-0.572204 3.62278 -0.420933
0.51684 3.44869 -1.39688
0.34743 3.45735 -1.39776
0.295075 3.46562 -1.07911
-2.7624 -3.63112 2.99315
-3.87096 -0.966867 2.6588
2.5335 -3.77687 3.35218
2.62159 -3.77589 3.47635
-2.15426 0.646591 3.93178
0.6511 2.446 3.27071
-2.10877 0.0618893 4.34506
-2.96841 2.1436 -2.42558
-4.00682 2.48921 1.64241
-3.92861 2.58574 1.45369
0.778328 3.4255 -1.11071
0.00128782 -4.18762 -1.05317
-0.16618 -4.18869 -1.17208
0.0254796 -4.14775 -1.28963
1.28739 3.51882 -0.86057
-4.00638 -3.07647 1.28482
-0.306282 -3.12604 3.53036
1.45388 3.46133 -1.05671
-0.328316 3.83332 2.90759
-0.240145 3.88238 2.84858
1.82353 3.43526 -1.15088
-2.3165 -0.49658 4.67158
-3.36219 0.168328 -3.18055
2.10081 3.37663 -1.30174
2.08642 3.44795 -1.02882
4.3506 2.01149 -0.0265129
2.51405 -3.35648 -3.02969
-3.33864 -1.06849 -2.91691
1.54329 -3.97571 -1.40896
1.61743 -4.00067 -1.14846
1.41836 -4.00738 -1.33708
-1.72789 2.78571 -3.96343
-1.66699 2.7654 -4.18427
-1.81463 2.70731 -4.15979
3.11348 -0.495795 3.86267
3.08131 -0.450644 3.80881
-0.283657 3.28652 -2.9525
-0.581873 3.26389 -2.81581
-1.63156 -4.28535 2.6124
-1.59289 -4.27807 2.69217
1.84467 -3.96007 -1.06126
-2.22912 -4.0738 2.42485
-3.47995 -1.74733 3.74689
-2.72569 3.11991 -0.305682
0.816289 3.09424 -4.53556
-3.55502 2.59469 -0.0150374
-3.6642 2.50476 0.023676
0.929972 -0.259044 2.69047
1.0466 -0.278386 2.6294
0.95674 -0.191825 2.62473
1.67221 0.664989 3.1599
3.87781 2.57671 -0.823223
3.77382 2.62125 -1.09865
3.77566 2.67927 -0.829708
3.96831 2.46733 -0.906736
2.89797 -3.66286 -1.3285
3.02379 -3.65424 -1.25209
2.88349 -0.0568085 3.44022
4.1963 2.1721 -1.11858
4.06002 2.30576 -1.24694
4.13549 2.27766 -0.97007
-2.0603 -2.35387 4.74796
4.39507 -3.12913 0.970853
3.55485 -3.46509 -1.16534
3.41118 -3.47784 -1.31209
4.45397 1.77478 -1.07746
4.38042 1.90741 -1.03299
3.16795 3.11895 2.68913
4.30528 2.03402 -1.02399
1.19178 0.636565 3.10427
